NORM_ASCII
1025 2046
   0.0066548   -0.3865459    0.1073633   -0.8932488   -0.1804584   -0.4117540
   0.0067463   -0.3857881    0.1063687   -0.9215306   -0.1842242   -0.3418228
   0.0069531   -0.3856284    0.1057813   -0.8243488   -0.2451790   -0.5102317
   0.0075637   -0.3894215    0.1064838   -0.7451787   -0.2421073   -0.6213636
   0.0077615   -0.3894807    0.1062621   -0.7214084   -0.2657873   -0.6394740
   0.0081867   -0.3913591    0.1066624   -0.5827708   -0.2662552   -0.7677802
   0.0085941   -0.3901155    0.1058671   -0.2808479   -0.2276160   -0.9323709
   0.0079652   -0.3885645    0.1057665   -0.5065914   -0.2390392   -0.8283872
   0.0086013   -0.3915077    0.1063917   -0.3916022   -0.2606160   -0.8824551
   0.0090301   -0.3915998    0.1062225   -0.2999764   -0.1434508   -0.9430992
   0.0061745   -0.3817509    0.1079385   -0.9630025   -0.1498588    0.2239831
   0.0061749   -0.3820497    0.1075008   -0.9831979   -0.1695542    0.0676265
   0.0065760   -0.3825225    0.1090892   -0.9422725   -0.0495749    0.3311569
   0.0061404   -0.3821029    0.1064824   -0.9887773   -0.1489733   -0.0112425
   0.0064173   -0.3820735    0.1087737   -0.9477048   -0.0959913    0.3043704
   0.0067961   -0.3818567    0.1097048   -0.8963652   -0.0266072    0.4425172
   0.0064687   -0.3802463    0.1093091   -0.8246517   -0.0723638    0.5609929
   0.0061836   -0.3801557    0.1088016   -0.8791603   -0.1802373    0.4411255
   0.0063679   -0.3812341    0.1088113   -0.9228323   -0.0761653    0.3775968
   0.0067701   -0.3797606    0.1097616   -0.7449071   -0.0037275    0.6671577
   0.0097865   -0.3972998    0.1124807    0.2250249   -0.9743007   -0.0100943
   0.0101160   -0.3972208    0.1131964    0.3060843   -0.9424784   -0.1343383
   0.0103272   -0.3971423    0.1131488    0.3104633   -0.9497455   -0.0399516
   0.0106823   -0.3969183    0.1122663    0.5458082   -0.8343067   -0.0776259
   0.0088937   -0.3971735    0.1125579   -0.5037301   -0.8638552    0.0031764
   0.0078189   -0.3973078    0.1093571   -0.8981749   -0.4324886    0.0789649
   0.0079778   -0.3975530    0.1088854   -0.8150822   -0.5627195   -0.1377963
   0.0077249   -0.3967670    0.1084053   -0.7625020   -0.4309917   -0.4825317
   0.0074902   -0.3958142    0.1080203   -0.7765664   -0.3303327   -0.5364932
   0.0077028   -0.3962106    0.1080372   -0.7173077   -0.3760474   -0.5865646
   0.0074263   -0.3948497    0.1077024   -0.7908191   -0.1386341   -0.5961423
   0.0077489   -0.3944351    0.1072910   -0.6361241   -0.0892595   -0.7664064
   0.0085404   -0.3940636    0.1067499   -0.4728933   -0.1309815   -0.8713299
   0.0085539   -0.3935589    0.1066901   -0.5496648   -0.0578367   -0.8333808
   0.0087496   -0.3930796    0.1065398   -0.5536134   -0.0529567   -0.8310883
   0.0087706   -0.3978203    0.1098960   -0.2910132   -0.8914888    0.3472160
   0.0094079   -0.3979618    0.1095962   -0.0352844   -0.9616978    0.2718316
   0.0096630   -0.3978652    0.1097976    0.3167645   -0.9066423    0.2786755
   0.0100136   -0.3975050    0.1106934    0.3808117   -0.9109190    0.1587738
   0.0082927   -0.3977802    0.1096857   -0.4990916   -0.8221719    0.2737532
   0.0080087   -0.3976117    0.1091564   -0.7198000   -0.6929839    0.0407598
   0.0104622   -0.3972257    0.1105623    0.6857084   -0.7195256    0.1099404
   0.0108576   -0.3971065    0.1094434    0.7638856   -0.6209239    0.1758759
   0.0108551   -0.3966938    0.1111468    0.7763581   -0.6296093    0.0293302
   0.0106198   -0.3969645    0.1117679    0.6404263   -0.7655866    0.0610847
   0.0106512   -0.3969336    0.1120147    0.5884353   -0.8085438    0.0009379
   0.0112651   -0.3954088    0.1078957    0.9294773    0.1738213   -0.3253585
   0.0108049   -0.3953548    0.1071602    0.7463222    0.1612420   -0.6457587
   0.0113822   -0.3957844    0.1085018    0.9972610   -0.0573685   -0.0466844
   0.0105867   -0.3946361    0.1069928    0.7629864   -0.0299352   -0.6457210
   0.0106711   -0.3940323    0.1070781    0.9319982    0.0702145   -0.3555971
   0.0104096   -0.3930431    0.1068422    0.8497352    0.1809043   -0.4952006
   0.0103346   -0.3924321    0.1072048    0.9552289    0.2353152   -0.1793447
   0.0109784   -0.3969919    0.1091382    0.8559346   -0.5107595    0.0806276
   0.0110934   -0.3968976    0.1081845    0.9174704   -0.3977605   -0.0058948
   0.0098999   -0.3910048    0.1066126    0.9045234    0.1186725   -0.4095782
   0.0100051   -0.3914958    0.1067470    0.9495426    0.1669234   -0.2655286
   0.0095120   -0.3905943    0.1061207    0.6449849   -0.0209977   -0.7639068
   0.0092862   -0.3901064    0.1059650    0.4472704   -0.0229477   -0.8941044
   0.0089259   -0.3896091    0.1058370    0.2281378   -0.0383311   -0.9728740
   0.0093495   -0.3851773    0.1048327    0.7353262   -0.2731216   -0.6202418
   0.0094853   -0.3842061    0.1045624    0.8010786   -0.2478806   -0.5448195
   0.0086353   -0.3870308    0.1051743   -0.0705858   -0.3161829   -0.9460687
   0.0090841   -0.3852221    0.1046284    0.3899505   -0.3577782   -0.8484889
   0.0084104   -0.3861824    0.1049004   -0.0819845   -0.3546538   -0.9313964
   0.0084048   -0.3881166    0.1055043   -0.1154621   -0.2720866   -0.9553206
   0.0106996   -0.3806262    0.1065533    0.9388923   -0.2291536   -0.2568461
   0.0109666   -0.3808332    0.1078722    0.9398668   -0.2936013   -0.1744956
   0.0107939   -0.3817421    0.1083994    0.9662268   -0.2121118   -0.1463368
   0.0114842   -0.3792763    0.1079044    0.9246303   -0.3110966   -0.2197217
   0.0110850   -0.3791220    0.1063567    0.9226694   -0.2890440   -0.2552151
   0.0103423   -0.3813338    0.1057521    0.9463512   -0.2231732   -0.2336947
   0.0098981   -0.3830878    0.1049142    0.9389782   -0.1143379   -0.3244176
   0.0102052   -0.3814446    0.1052806    0.9500144   -0.1939121   -0.2446849
   0.0099123   -0.3820968    0.1047155    0.9405244   -0.1852865   -0.2847505
   0.0096026   -0.3836911    0.1045497    0.8501539   -0.2171034   -0.4796921
   0.0081017   -0.3785236    0.1109727   -0.6512496   -0.0421869    0.7576901
   0.0078292   -0.3785053    0.1107426   -0.6374921   -0.0496629    0.7688546
   0.0083156   -0.3794522    0.1111782   -0.5723333    0.0043739    0.8200094
   0.0075968   -0.3785441    0.1105587   -0.5717301   -0.0336780    0.8197503
   0.0084956   -0.3789084    0.1112876   -0.5564618   -0.0219709    0.8305826
   0.0088540   -0.3783434    0.1115060   -0.3726430   -0.0461358    0.9268272
   0.0098025   -0.3778054    0.1116680    0.0417399    0.0416336    0.9982607
   0.0090981   -0.3783320    0.1115749   -0.2007544   -0.0316800    0.9791292
   0.0114037   -0.3803833    0.1097700    0.9663444   -0.1752976    0.1882799
   0.0110436   -0.3811485    0.1087258    0.9410113   -0.2270822   -0.2508613
   0.0106990   -0.3811487    0.1108428    0.8756706   -0.0945192    0.4735684
   0.0109250   -0.3807891    0.1107175    0.8048453   -0.1526591    0.5735148
   0.0103563   -0.3797765    0.1112913    0.4856953   -0.1239044    0.8653021
   0.0104943   -0.3811022    0.1110101    0.6657292   -0.1102409    0.7380051
   0.0105090   -0.3808392    0.1110420    0.5403238   -0.1296917    0.8314026
   0.0112668   -0.3785415    0.1109107    0.5763084   -0.1766127    0.7979201
   0.0110957   -0.3779558    0.1111689    0.4867202   -0.1565790    0.8594106
   0.0104576   -0.3778633    0.1114841    0.3242498   -0.0074096    0.9459425
   0.0066295   -0.3858175    0.1069097   -0.9694013   -0.1432568   -0.1993455
   0.0062392   -0.3825331    0.1063273   -0.9787645   -0.1726145   -0.1105639
   0.0069133   -0.3835771    0.1047676   -0.8397612   -0.2826112   -0.4636076
   0.0067179   -0.3831341    0.1048751   -0.8924882   -0.2295298   -0.3883051
   0.0065443   -0.3829321    0.1052450   -0.9355673   -0.1862690   -0.3000296
   0.0073481   -0.3865089    0.1055970   -0.7016589   -0.2538021   -0.6657772
   0.0071696   -0.3859867    0.1055918   -0.7160966   -0.2702272   -0.6435705
   0.0071006   -0.3833718    0.1043733   -0.6644557   -0.3796019   -0.6437399
   0.0073285   -0.3846200    0.1048012   -0.6251604   -0.3408205   -0.7021509
   0.0073425   -0.3855571    0.1052303   -0.5991167   -0.3181955   -0.7347182
   0.0077125   -0.3880255    0.1058178   -0.6339299   -0.2473077   -0.7327835
   0.0088170   -0.3901275    0.1058392    0.0132059   -0.1780828   -0.9839269
   0.0079755   -0.3861382    0.1050398   -0.4314966   -0.2825989   -0.8567080
   0.0092622   -0.3911143    0.1061030    0.1041057   -0.1953176   -0.9751990
   0.0089893   -0.3931179    0.1063968   -0.3185549   -0.0861124   -0.9439849
   0.0094971   -0.3911475    0.1061827    0.4766588   -0.0540597   -0.8774246
   0.0094711   -0.3926269    0.1063273    0.0662442   -0.0463875   -0.9967246
   0.0058941   -0.3808191    0.1074616   -0.9664691   -0.1990503    0.1622236
   0.0058857   -0.3801541    0.1080601   -0.9349069   -0.2488313    0.2530454
   0.0059944   -0.3812788    0.1057587   -0.9557991   -0.2776213   -0.0968220
   0.0057416   -0.3803514    0.1070942   -0.9505124   -0.2898020    0.1119867
   0.0062513   -0.3794653    0.1091246   -0.7967628   -0.1309206    0.5899397
   0.0066289   -0.3787404    0.1096593   -0.7007201   -0.0785313    0.7091010
   0.0067960   -0.3792321    0.1097967   -0.7404390   -0.0271888    0.6715734
   0.0050382   -0.3770036    0.1080897   -0.8965958   -0.1055596    0.4300850
   0.0050859   -0.3781596    0.1076192   -0.9129465   -0.2556838    0.3180479
   0.0058583   -0.3778270    0.1090685   -0.7309268   -0.0892435    0.6765956
   0.0081691   -0.3976621    0.1086319   -0.6374306   -0.6293278   -0.4445545
   0.0084525   -0.3979455    0.1091919   -0.4087134   -0.9086872    0.0850936
   0.0079101   -0.3963668    0.1079302   -0.5922882   -0.3911763   -0.7043975
   0.0081294   -0.3968656    0.1080372   -0.5638891   -0.4506460   -0.6920602
   0.0078893   -0.3949612    0.1072872   -0.5421636   -0.2796922   -0.7923578
   0.0091914   -0.3937878    0.1064177   -0.2661538   -0.1046560   -0.9582324
   0.0093999   -0.3941682    0.1063983   -0.2244549   -0.1628432   -0.9607820
   0.0090138   -0.3951046    0.1067964   -0.3439881   -0.2875257   -0.8938686
   0.0095681   -0.3981152    0.1090990    0.1194681   -0.9721803    0.2014765
   0.0090585   -0.3981742    0.1086602   -0.1751074   -0.9746922   -0.1389694
   0.0102310   -0.3974460    0.1101320    0.5645535   -0.8015293    0.1970535
   0.0099838   -0.3980615    0.1087739    0.4335909   -0.8958781    0.0969610
   0.0103355   -0.3975708    0.1096341    0.5828069   -0.7700074    0.2596626
   0.0104332   -0.3977372    0.1086297    0.6625195   -0.7484582    0.0296344
   0.0108950   -0.3961153    0.1070960    0.7347719    0.0136117   -0.6781777
   0.0113593   -0.3958426    0.1082609    0.9915106   -0.0863767   -0.0971894
   0.0111911   -0.3960111    0.1075498    0.9211421   -0.0176253   -0.3888272
   0.0102931   -0.3956568    0.1067839    0.2601651   -0.0402530   -0.9647247
   0.0105143   -0.3959844    0.1068486    0.4256014   -0.0264583   -0.9045239
   0.0100728   -0.3951598    0.1066687    0.2746890   -0.2185788   -0.9363596
   0.0103344   -0.3943667    0.1066921    0.6137665   -0.1167177   -0.7808122
   0.0104570   -0.3935934    0.1067261    0.7866900    0.0326564   -0.6164839
   0.0101327   -0.3931240    0.1064790    0.4827558    0.0482952   -0.8744223
   0.0099038   -0.3915528    0.1065014    0.8443171    0.1362480   -0.5182328
   0.0103574   -0.3936138    0.1066275    0.6313265    0.0296518   -0.7749501
   0.0107121   -0.3974533    0.1079998    0.7361597   -0.6746492   -0.0540135
   0.0110472   -0.3969129    0.1078118    0.8861928   -0.4270431   -0.1797121
   0.0112479   -0.3964432    0.1079192    0.9517498   -0.2406807   -0.1903814
   0.0107898   -0.3973052    0.1076906    0.7324626   -0.6095029   -0.3033227
   0.0090405   -0.3824354    0.1032358    0.5785769   -0.3648061   -0.7294966
   0.0081141   -0.3861500    0.1050007   -0.1371170   -0.3510540   -0.9262613
   0.0086277   -0.3852392    0.1045109    0.0134578   -0.3511041   -0.9362397
   0.0088136   -0.3833931    0.1035567    0.0729884   -0.4561879   -0.8868852
   0.0083996   -0.3846124    0.1042892   -0.0728952   -0.4016283   -0.9128970
   0.0081903   -0.3856834    0.1047888   -0.1618784   -0.3768787   -0.9120076
   0.0108037   -0.3797145    0.1060336    0.9414856   -0.2551494   -0.2202355
   0.0114874   -0.3784295    0.1071001    0.9259806   -0.2382411   -0.2929183
   0.0116765   -0.3789947    0.1088411    0.9507183   -0.3056911   -0.0518429
   0.0117819   -0.3781472    0.1075615    0.8738606   -0.3256061   -0.3610378
   0.0119526   -0.3782042    0.1080742    0.9211757   -0.3337559   -0.2001056
   0.0109907   -0.3788063    0.1055049    0.9271654   -0.3041107   -0.2188172
   0.0108226   -0.3793710    0.1056791    0.9321964   -0.2998923   -0.2026685
   0.0106429   -0.3785515    0.1039234    0.9364443   -0.2589351   -0.2366953
   0.0106528   -0.3794545    0.1049448    0.9371807   -0.2675636   -0.2238349
   0.0107840   -0.3793432    0.1054168    0.9423370   -0.2729958   -0.1935828
   0.0101137   -0.3806406    0.1042961    0.9458184   -0.2211470   -0.2377428
   0.0096882   -0.3813434    0.1035024    0.8615582   -0.3142102   -0.3987347
   0.0099402   -0.3803798    0.1032098    0.9209303   -0.2371009   -0.3093065
   0.0100024   -0.3807534    0.1038218    0.9592700   -0.1970250   -0.2024409
   0.0092607   -0.3819287    0.1031957    0.7428242   -0.3506872   -0.5702900
   0.0078665   -0.3779602    0.1108494   -0.5485725   -0.1272632    0.8263608
   0.0083652   -0.3783990    0.1112337   -0.6031516   -0.0945725    0.7920001
   0.0076278   -0.3780066    0.1106326    0.7461888   -0.0751145    0.6614833
   0.0073996   -0.3780546    0.1104145   -0.4929626   -0.0927190    0.8650960
   0.0076278   -0.3780066    0.1106326    0.9537183   -0.0250129    0.2996594
   0.0083978   -0.3778578    0.1113201   -0.4637203    0.0022031    0.8859789
   0.0091110   -0.3778107    0.1115780   -0.2430221    0.0917496    0.9656719
   0.0100330   -0.3773197    0.1115400    0.1564867    0.2892709    0.9443698
   0.0095821   -0.3773065    0.1115548   -0.0856809    0.3292617    0.9403433
   0.0109335   -0.3806577    0.1107423    0.7605771   -0.1665113    0.6275320
   0.0115124   -0.3791753    0.1104665    0.8476338   -0.2722727    0.4553950
   0.0113817   -0.3797139    0.1103839    0.7729798   -0.2383032    0.5879743
   0.0115410   -0.3797098    0.1098299    0.9550073   -0.2831482    0.0882505
   0.0109973   -0.3794974    0.1108767    0.6534479   -0.1547485    0.7409850
   0.0115186   -0.3778658    0.1108883    0.6763848   -0.1896420    0.7117159
   0.0113349   -0.3774558    0.1111055    0.5479012   -0.0124273    0.8364507
   0.0102544   -0.3773355    0.1114997    0.2182491    0.2401041    0.9458950
   0.0063803   -0.3828148    0.1057191   -0.9578420   -0.2008648   -0.2054068
   0.0068971   -0.3831266    0.1044813   -0.8149911   -0.3195594   -0.4833956
   0.0069586   -0.3822450    0.1038264   -0.8075161   -0.3541884   -0.4716655
   0.0079612   -0.3847197    0.1044466   -0.4281045   -0.3983001   -0.8112235
   0.0077100   -0.3831332    0.1037147   -0.4157994   -0.4512565   -0.7896065
   0.0074913   -0.3828140    0.1036747   -0.5542864   -0.4235503   -0.7164996
   0.0077571   -0.3851563    0.1047764   -0.4196036   -0.3908941   -0.8192280
   0.0079762   -0.3856552    0.1048835    0.3547863   -0.3319137   -0.8740480
   0.0096591   -0.3931506    0.1063242    0.0410165   -0.0321964   -0.9986396
   0.0053664   -0.3791403    0.1073313   -0.9202437   -0.3277929    0.2137832
   0.0057374   -0.3803248    0.1051905   -0.9409660   -0.3155648   -0.1224819
   0.0059054   -0.3806919    0.1048330   -0.9008404   -0.3754469   -0.2180052
   0.0054917   -0.3797394    0.1067003   -0.9330454   -0.3583723    0.0315530
   0.0054059   -0.3795650    0.1061454   -0.9387956   -0.3385780   -0.0634641
   0.0050838   -0.3787403    0.1067398   -0.9358505   -0.3435824    0.0783254
   0.0074366   -0.3775095    0.1105213   -0.6845967   -0.0331707    0.7281669
   0.0047261   -0.3772254    0.1071511   -0.9618607   -0.1530395    0.2267219
   0.0052664   -0.3768967    0.1085509   -0.8382799   -0.0596802    0.5419642
   0.0052375   -0.3764074    0.1084220   -0.8161411    0.2032002    0.5409468
   0.0049064   -0.3765684    0.1077286   -0.9364709    0.1299196    0.3257961
   0.0048029   -0.3777752    0.1070317   -0.9544958   -0.2551476    0.1543941
   0.0066603   -0.3766558    0.1096783   -0.6627421    0.2180510    0.7163984
   0.0059115   -0.3767665    0.1091521   -0.5940794    0.1804048    0.7839157
   0.0069020   -0.3772122    0.1099887   -0.6958193    0.0741279    0.7143812
   0.0054024   -0.3768583    0.1087250   -0.7176654    0.0674770    0.6931113
   0.0086130   -0.3980465    0.1086804   -0.4509392   -0.8529293   -0.2629933
   0.0087981   -0.3978625    0.1082781   -0.3523506   -0.6249019   -0.6966682
   0.0085672   -0.3973855    0.1080825   -0.4223839   -0.4856465   -0.7653360
   0.0085350   -0.3960563    0.1073734   -0.4209751   -0.3833445   -0.8220869
   0.0089634   -0.3955734    0.1070049   -0.2671875   -0.3226331   -0.9080301
   0.0096162   -0.3946742    0.1064799   -0.0623311   -0.2549588   -0.9649408
   0.0097287   -0.3981288    0.1085644    0.1644390   -0.9736816   -0.1578097
   0.0090144   -0.3978875    0.1082000   -0.3041242   -0.6695674   -0.6776341
   0.0092514   -0.3980847    0.1083526   -0.0448830   -0.8957332   -0.4423206
   0.0101464   -0.3978763    0.1081847    0.3457217   -0.9050277   -0.2477932
   0.0103399   -0.3977052    0.1078551    0.4041604   -0.8385026   -0.3654693
   0.0107440   -0.3966344    0.1070897    0.4843121   -0.3064074   -0.8194854
   0.0110046   -0.3965758    0.1073514    0.8185536   -0.2511523   -0.5166165
   0.0102763   -0.3961689    0.1068181   -0.0988796   -0.2657356   -0.9589616
   0.0098597   -0.3939956    0.1063907    0.3107395   -0.0965582   -0.9455778
   0.0110169   -0.3967859    0.1075220    0.8413345   -0.3843055   -0.3800863
   0.0107605   -0.3970382    0.1073632    0.6374470   -0.4908355   -0.5939207
   0.0105348   -0.3973627    0.1074787    0.3809566   -0.6894784   -0.6160289
   0.0089888   -0.3810840    0.1023609    0.4008349   -0.4692581   -0.7868470
   0.0084317   -0.3829242    0.1033091   -0.1148079   -0.4901167   -0.8640630
   0.0079762   -0.3856552    0.1048835    0.9433229   -0.1162340   -0.3108561
   0.0081773   -0.3844990    0.1042859   -0.2255002   -0.4321843   -0.8731359
   0.0079762   -0.3856552    0.1048835    0.7607663   -0.2928202   -0.5792159
   0.0079672   -0.3851901    0.1046537   -0.4024354   -0.3860540   -0.8300651
   0.0117262   -0.3778821    0.1072372    0.8654979   -0.2811637   -0.4145603
   0.0113340   -0.3777282    0.1056886    0.9647445   -0.1822098   -0.1899147
   0.0114058   -0.3778083    0.1062201    0.9832983   -0.1247623   -0.1325100
   0.0111253   -0.3778939    0.1049819    0.9395906   -0.2293723   -0.2540824
   0.0114682   -0.3777818    0.1067237    0.9512332   -0.1919586   -0.2414691
   0.0118226   -0.3764804    0.1065862    0.9141305   -0.1390390   -0.3808327
   0.0121858   -0.3776083    0.1084027    0.9581716   -0.2857952   -0.0151114
   0.0120052   -0.3780293    0.1087984    0.9573298   -0.2886074    0.0150119
   0.0119822   -0.3777769    0.1076955    0.8833153   -0.2926132   -0.3662398
   0.0121740   -0.3772374    0.1077850    0.9521181   -0.1644532   -0.2577331
   0.0109514   -0.3784335    0.1048902    0.9300760   -0.2677862   -0.2514938
   0.0101394   -0.3797835    0.1035421    0.9379497   -0.2568930   -0.2329299
   0.0105347   -0.3783380    0.1031010    0.9634495   -0.1989188   -0.1794333
   0.0105521   -0.3782040    0.1030626    0.9448708   -0.2250322   -0.2378649
   0.0109648   -0.3778426    0.1044690    0.9353502   -0.2363203   -0.2631971
   0.0106228   -0.3778527    0.1029591    0.9544390   -0.1627609   -0.2501101
   0.0093995   -0.3814480    0.1030480    0.7467974   -0.4060022   -0.5267409
   0.0097698   -0.3807028    0.1030592    0.8289504   -0.3415418   -0.4429340
   0.0097125   -0.3795748    0.1022129    0.8666120   -0.2317018   -0.4419253
   0.0100619   -0.3798144    0.1033007    0.9092486   -0.2610214   -0.3242450
   0.0076278   -0.3780066    0.1106326    0.4028084   -0.1347506    0.9053108
   0.0076650   -0.3774582    0.1107531   -0.6773851   -0.0089788    0.7355738
   0.0079229   -0.3774069    0.1109912   -0.6095344    0.0261595    0.7923279
   0.0084135   -0.3773476    0.1112790   -0.3236708    0.2468980    0.9133885
   0.0106708   -0.3759820    0.1107429    0.0862065    0.5931023    0.8004987
   0.0100244   -0.3768548    0.1113127    0.0570045    0.4762223    0.8774753
   0.0093437   -0.3768421    0.1113029   -0.0833539    0.5079677    0.8573336
   0.0116636   -0.3793016    0.1099631    0.9475547   -0.2734221    0.1654702
   0.0118355   -0.3781565    0.1104091    0.9003562   -0.1945450    0.3892442
   0.0117355   -0.3775596    0.1107086    0.7664206   -0.0218000    0.6419691
   0.0113505   -0.3764641    0.1109011    0.6038302    0.3071949    0.7355409
   0.0111365   -0.3769171    0.1111585    0.4154288    0.1911715    0.8893100
   0.0111375   -0.3764339    0.1110046    0.2507980    0.4545863    0.8546646
   0.0072700   -0.3822719    0.1035359   -0.5765651   -0.4691125   -0.6689590
   0.0067236   -0.3813150    0.1033447   -0.7607337   -0.4627427   -0.4551411
   0.0077598   -0.3851557    0.1047750   -0.1880732   -0.4268370   -0.8845556
   0.0079072   -0.3824892    0.1032565   -0.4233293   -0.4758730   -0.7709327
   0.0058479   -0.3801228    0.1041674   -0.8990507   -0.3574981   -0.2527902
   0.0055434   -0.3797808    0.1052747   -0.9422553   -0.3111252   -0.1239198
   0.0056589   -0.3797004    0.1043354   -0.9379502   -0.3121012   -0.1511364
   0.0052102   -0.3787563    0.1051727   -0.9305478   -0.3436982   -0.1263023
   0.0049987   -0.3781987    0.1053070   -0.9564337   -0.2439293   -0.1604150
   0.0049637   -0.3781861    0.1055673   -0.9620736   -0.2436302   -0.1227136
   0.0052817   -0.3787287    0.1046378   -0.9436627   -0.2739924   -0.1855503
   0.0048247   -0.3779748    0.1062153   -0.9693967   -0.2382390   -0.0592643
   0.0072521   -0.3765231    0.1102772   -0.6858477    0.1861202    0.7035426
   0.0047061   -0.3772911    0.1068750   -0.8961673   -0.4192296    0.1453640
   0.0047004   -0.3773413    0.1066675   -0.9708879   -0.2394239   -0.0072714
   0.0048176   -0.3761925    0.1071196   -0.9407270    0.2995561    0.1590560
   0.0047791   -0.3762502    0.1068805   -0.9682116    0.2476850    0.0349061
   0.0046893   -0.3768406    0.1065854   -0.9982179    0.0590848    0.0083647
   0.0051917   -0.3759749    0.1080514   -0.8449880    0.3591542    0.3962368
   0.0057013   -0.3763118    0.1088570   -0.5721027    0.3176809    0.7561596
   0.0056527   -0.3758570    0.1085830   -0.5538630    0.5369929    0.6362974
   0.0063991   -0.3764398    0.1093231   -0.5709692    0.3413728    0.7466316
   0.0071654   -0.3760122    0.1098901   -0.5422990    0.5686408    0.6185139
   0.0069109   -0.3760055    0.1096607   -0.6180156    0.4660139    0.6331570
   0.0089797   -0.3963394    0.1073944   -0.3618576   -0.4304953   -0.8268814
   0.0087511   -0.3960244    0.1072732   -0.2853500   -0.4425495   -0.8501325
   0.0098924   -0.3978541    0.1079512   -0.0062580   -0.8318096   -0.5550258
   0.0096411   -0.3974484    0.1076131   -0.3296503   -0.5844975   -0.7414130
   0.0100825   -0.3975481    0.1075502   -0.0378222   -0.7176338   -0.6953928
   0.0103103   -0.3975006    0.1075441    0.1958338   -0.7327568   -0.6517028
   0.0102727   -0.3966574    0.1069502    0.0388574   -0.3781098   -0.9249449
   0.0105158   -0.3971127    0.1072394    0.3270742   -0.5288059   -0.7831901
   0.0098397   -0.3970927    0.1072624   -0.3111173   -0.4416657   -0.8415090
   0.0102825   -0.3970894    0.1071771    0.0505480   -0.5909670   -0.8051105
   0.0079489   -0.3810650    0.1023465   -0.1362606   -0.5357224   -0.8333274
   0.0093245   -0.3805853    0.1023051    0.6748633   -0.4085967   -0.6144984
   0.0085131   -0.3806346    0.1020261    0.1009836   -0.4527407   -0.8859053
   0.0072040   -0.3809964    0.1025630   -0.4793749   -0.5232587   -0.7045566
   0.0114091   -0.3772436    0.1055479    0.9630039   -0.1304276   -0.2358224
   0.0114676   -0.3775572    0.1064037    0.9569681   -0.2022007   -0.2081514
   0.0120487   -0.3765617    0.1073583    0.9516511    0.1025011   -0.2895751
   0.0117021   -0.3763945    0.1063189    0.9391255   -0.0183381   -0.3430845
   0.0117683   -0.3759084    0.1066972    0.9052323    0.3071661   -0.2936043
   0.0121682   -0.3773130    0.1096211    0.9718435   -0.2027714    0.1200162
   0.0123129   -0.3770672    0.1084995    0.9972995   -0.0723695   -0.0125080
   0.0120329   -0.3778637    0.1095278    0.9701236   -0.2393931    0.0393834
   0.0122406   -0.3766936    0.1078887    0.9866466    0.0603739   -0.1512729
   0.0104658   -0.3783925    0.1028654    0.9024275   -0.3049048   -0.3043973
   0.0105233   -0.3779079    0.1027268    0.9809037   -0.0844392   -0.1752082
   0.0105233   -0.3779079    0.1027268    0.9884419   -0.0962468   -0.1171289
   0.0110321   -0.3770313    0.1042409    0.9682659   -0.0046572   -0.2498790
   0.0105233   -0.3779079    0.1027268    0.9855204   -0.0476171   -0.1627335
   0.0105277   -0.3774192    0.1025938    0.9117356   -0.0139465   -0.4105407
   0.0106291   -0.3773655    0.1028260    0.9358707    0.0390565   -0.3501721
   0.0095813   -0.3796205    0.1020118    0.8417071   -0.2937393   -0.4530413
   0.0099382   -0.3790330    0.1023265    0.7907968   -0.3444678   -0.5059470
   0.0094334   -0.3792120    0.1016599    0.6735659   -0.2832722   -0.6826901
   0.0079416   -0.3764080    0.1108135   -0.5362246    0.2586983    0.8034540
   0.0081802   -0.3768742    0.1110652   -0.2969461    0.3040568    0.9051920
   0.0091032   -0.3765411    0.1110893   -0.1126488    0.4399276    0.8909399
   0.0110592   -0.3754510    0.1100322    0.1752110    0.8369970    0.5183986
   0.0104188   -0.3756524    0.1104253    0.0677212    0.7160188    0.6947884
   0.0111152   -0.3759925    0.1106745    0.2659788    0.6606073    0.7020351
   0.0093023   -0.3756576    0.1105656    0.0238419    0.6541886    0.7559556
   0.0118352   -0.3785546    0.1099989    0.9649412   -0.2256280    0.1340917
   0.0120761   -0.3771914    0.1101179    0.9224861   -0.0400072    0.3839515
   0.0117731   -0.3770570    0.1106381    0.7761078    0.0853779    0.6247939
   0.0119504   -0.3766255    0.1102950    0.8305821    0.1820392    0.5263032
   0.0117520   -0.3765058    0.1104912    0.7293429    0.3291695    0.5997553
   0.0115328   -0.3759933    0.1103794    0.6238727    0.5473998    0.5577960
   0.0113112   -0.3757593    0.1103439    0.4288495    0.6783827    0.5965610
   0.0067902   -0.3809141    0.1028630   -0.7090982   -0.4608850   -0.5336335
   0.0060200   -0.3801651    0.1037325   -0.8486579   -0.3704578   -0.3775458
   0.0059189   -0.3796933    0.1035235   -0.8389929   -0.2905468   -0.4600799
   0.0055186   -0.3790669    0.1039220   -0.9182640   -0.2665146   -0.2928500
   0.0054419   -0.3788881    0.1041424   -0.9513231   -0.2519149   -0.1775476
   0.0051226   -0.3784760    0.1051077   -0.9503999   -0.2409574   -0.1966714
   0.0050973   -0.3777359    0.1046508   -0.9599029   -0.0648671   -0.2727247
   0.0048598   -0.3775860    0.1056766   -0.9806251   -0.0957759   -0.1708839
   0.0053379   -0.3780226    0.1039207   -0.9292159   -0.0783159   -0.3611432
   0.0051672   -0.3778945    0.1044262   -0.9579816   -0.0747748   -0.2769114
   0.0076853   -0.3759763    0.1104251   -0.5473358    0.4628457    0.6972785
   0.0048082   -0.3774291    0.1059001   -0.9826341   -0.0718508   -0.1710783
   0.0047071   -0.3769130    0.1062911   -0.9729485    0.0952922   -0.2104533
   0.0049962   -0.3758309    0.1064808   -0.8784797    0.4647715   -0.1107288
   0.0050389   -0.3757516    0.1072320   -0.8704901    0.4733473    0.1348680
   0.0047742   -0.3763674    0.1063945   -0.9542455    0.2579469   -0.1512576
   0.0053864   -0.3757943    0.1082370   -0.7156512    0.5182437    0.4682594
   0.0052961   -0.3753961    0.1073628   -0.7207311    0.6552164    0.2263586
   0.0058966   -0.3758344    0.1087030   -0.4078627    0.6093011    0.6800001
   0.0058061   -0.3752304    0.1077730   -0.1889884    0.8985562    0.3960811
   0.0055823   -0.3753369    0.1078295   -0.5004884    0.7499521    0.4325312
   0.0068831   -0.3756254    0.1093017   -0.5507328    0.6191577    0.5597653
   0.0076284   -0.3756002    0.1098292   -0.5949617    0.6652504    0.4510681
   0.0076757   -0.3758385    0.1102983   -0.5677900    0.6349589    0.5238718
   0.0073022   -0.3751570    0.1088633   -0.2026804    0.8738843    0.4418674
   0.0070846   -0.3752724    0.1089782   -0.3938424    0.7820831    0.4829432
   0.0060599   -0.3753635    0.1080366   -0.2493163    0.8508957    0.4624044
   0.0065982   -0.3755348    0.1087942   -0.5518871    0.7044654    0.4462613
   0.0073975   -0.3805797    0.1021516   -0.2883150   -0.4767236   -0.8304270
   0.0091974   -0.3796776    0.1017411    0.4223475   -0.4174283   -0.8045969
   0.0094556   -0.3801056    0.1021449    0.7452742   -0.3846072   -0.5446501
   0.0091885   -0.3792127    0.1015116    0.2789824   -0.3301315   -0.9017660
   0.0082810   -0.3801575    0.1018216   -0.0357805   -0.4288092   -0.9026862
   0.0067291   -0.3804565    0.1025928   -0.7366715   -0.3810136   -0.5586982
   0.0068718   -0.3800340    0.1022014   -0.6703230   -0.2977189   -0.6797283
   0.0113215   -0.3766357    0.1051351    0.9386295    0.1561194   -0.3075733
   0.0114645   -0.3761517    0.1057638    0.9001651    0.2942153   -0.3211544
   0.0121139   -0.3761555    0.1077584    0.9450183    0.2078310   -0.2524812
   0.0118318   -0.3757339    0.1071606    0.8785039    0.4266514   -0.2149408
   0.0115161   -0.3756176    0.1063903    0.6920127    0.6144086   -0.3789731
   0.0115474   -0.3755440    0.1066263    0.6692303    0.6979327   -0.2549916
   0.0115792   -0.3754917    0.1068672    0.7115842    0.6462279   -0.2757490
   0.0122052   -0.3767680    0.1097279    0.9649231    0.0816368    0.2495172
   0.0122187   -0.3763383    0.1093507    0.9736174    0.1871888    0.1304974
   0.0121768   -0.3760336    0.1082361    0.9494294    0.2954746   -0.1062002
   0.0122374   -0.3762853    0.1088152    0.9764208    0.2137271    0.0303820
   0.0101056   -0.3785520    0.1021757    0.8024102   -0.3608109   -0.4753455
   0.0103445   -0.3780159    0.1022600    0.8705174   -0.1717677   -0.4611890
   0.0104411   -0.3774736    0.1023603    0.9117138    0.0539789   -0.4072643
   0.0105267   -0.3774193    0.1025917    0.9480199    0.0043513   -0.3181812
   0.0109411   -0.3768359    0.1039403    0.9696144    0.0402078   -0.2413116
   0.0109747   -0.3765403    0.1041150    0.9977516    0.0114196   -0.0660400
   0.0109747   -0.3765403    0.1041150    0.9904586    0.0491224   -0.1287583
   0.0110472   -0.3764851    0.1043502    0.9418841    0.1263166   -0.3112850
   0.0105269   -0.3774154    0.1025933    0.9064471    0.1224426   -0.4041800
   0.0105077   -0.3768709    0.1027070    0.8793586    0.2452453   -0.4081460
   0.0094423   -0.3796497    0.1018793    0.5896713   -0.3731998   -0.7162469
   0.0094780   -0.3786973    0.1015153    0.5972737   -0.2588543   -0.7591169
   0.0098063   -0.3781671    0.1015899    0.6130621   -0.1995852   -0.7644087
   0.0099368   -0.3781394    0.1017132    0.7380053   -0.2558910   -0.6243940
   0.0081710   -0.3759279    0.1106723   -0.2709351    0.4822143    0.8331048
   0.0088631   -0.3759206    0.1107680   -0.0737536    0.5709260    0.8176821
   0.0114746   -0.3754671    0.1097255    0.4606826    0.8097453    0.3634337
   0.0099429   -0.3754057    0.1101586    0.0438529    0.9162690    0.3981558
   0.0108056   -0.3753276    0.1097712    0.0637114    0.9839467    0.1667026
   0.0090587   -0.3755005    0.1103723   -0.0131348    0.7883641    0.6150687
   0.0119176   -0.3759197    0.1097932    0.7924806    0.4621372    0.3979998
   0.0065771   -0.3794399    0.1024802   -0.7625505   -0.1377612   -0.6320906
   0.0059856   -0.3791219    0.1031009   -0.8044423   -0.2118197   -0.5549819
   0.0057966   -0.3791906    0.1034350   -0.8419078   -0.2665289   -0.4692052
   0.0056036   -0.3788082    0.1035820   -0.8692642   -0.1831040   -0.4591870
   0.0054527   -0.3774576    0.1037535   -0.8769453    0.2189750   -0.4278047
   0.0050515   -0.3772825    0.1047932   -0.9317815    0.1838318   -0.3130322
   0.0056092   -0.3780783    0.1033837   -0.8573977   -0.0402460   -0.5130784
   0.0056453   -0.3774091    0.1034575   -0.7671024    0.3328751   -0.5484050
   0.0081546   -0.3756491    0.1104468   -0.2892798    0.6780078    0.6757386
   0.0050052   -0.3768239    0.1054525   -0.8991582    0.3134862   -0.3053539
   0.0048455   -0.3766761    0.1059503   -0.8952845    0.2448100   -0.3722012
   0.0048796   -0.3763046    0.1061047   -0.8713105    0.3518543   -0.3420769
   0.0051704   -0.3755934    0.1063945   -0.6705151    0.6680860   -0.3225996
   0.0052339   -0.3753878    0.1068496   -0.7121997    0.6996298   -0.0573556
   0.0055519   -0.3752355    0.1075465   -0.4054691    0.8909543    0.2044390
   0.0055346   -0.3751921    0.1070188   -0.4447113    0.8949088    0.0370164
   0.0062237   -0.3751081    0.1074289   -0.4077934    0.8521761    0.3278725
   0.0061301   -0.3750024    0.1066338   -0.3738211    0.9263555   -0.0460784
   0.0078713   -0.3754066    0.1098973   -0.3395045    0.8743264    0.3468286
   0.0078946   -0.3755306    0.1101336   -0.3963840    0.7658239    0.5063531
   0.0070182   -0.3749612    0.1083271   -0.1889731    0.8985785    0.3960376
   0.0076256   -0.3749816    0.1077389    0.3734999    0.9098737    0.1806312
   0.0066508   -0.3753824    0.1084869   -0.4964666    0.7731264    0.3947107
   0.0071724   -0.3800901    0.1020021   -0.4166788   -0.3562123   -0.8363561
   0.0076098   -0.3799943    0.1018396   -0.2256751   -0.3932560   -0.8913027
   0.0084948   -0.3792235    0.1014030   -0.0022445   -0.2590151   -0.9658707
   0.0089608   -0.3787283    0.1013408    0.1085167   -0.2003084   -0.9737046
   0.0091998   -0.3782300    0.1012733    0.2314222   -0.1102575   -0.9665853
   0.0078237   -0.3796757    0.1016261   -0.2224005   -0.3503522   -0.9098304
   0.0071730   -0.3796069    0.1018455   -0.5253590   -0.2116511   -0.8241369
   0.0110072   -0.3763557    0.1043203    0.9364161    0.2401829   -0.2558069
   0.0108187   -0.3759844    0.1042432    0.7408534    0.5704620   -0.3545553
   0.0110663   -0.3757610    0.1051890    0.8261102    0.4397165   -0.3524079
   0.0113878   -0.3761068    0.1055020    0.8758252    0.3794010   -0.2983038
   0.0109456   -0.3755084    0.1053950    0.7190885    0.6340693   -0.2843727
   0.0112295   -0.3757275    0.1059376    0.7036272    0.6378410   -0.3131574
   0.0117353   -0.3753883    0.1081162    0.6367182    0.7710065   -0.0117886
   0.0120188   -0.3756386    0.1086673    0.8110945    0.5849151   -0.0000360
   0.0116109   -0.3754200    0.1071030    0.7549301    0.6053414   -0.2522743
   0.0112941   -0.3754419    0.1063703    0.5849394    0.7350240   -0.3429075
   0.0113560   -0.3754221    0.1066164    0.7068157    0.6779730   -0.2019011
   0.0113568   -0.3753628    0.1068597    0.9051662    0.4062347   -0.1250900
   0.0120538   -0.3758432    0.1092367    0.8909576    0.4238399    0.1629548
   0.0103263   -0.3775263    0.1021298    0.8341090    0.0667012   -0.5475519
   0.0099548   -0.3775883    0.1016738    0.6790829    0.0137792   -0.7339322
   0.0100231   -0.3767753    0.1019635    0.6937418    0.4418707   -0.5687466
   0.0109747   -0.3765403    0.1041150    0.9713249    0.1497064   -0.1847052
   0.0109195   -0.3765958    0.1038778    0.9349971    0.1685428   -0.3120477
   0.0103732   -0.3764307    0.1028640    0.6447547    0.6182028   -0.4495739
   0.0104338   -0.3762071    0.1032866    0.4851184    0.7573088   -0.4371996
   0.0107233   -0.3761522    0.1037818    0.8045397    0.4585588   -0.3774118
   0.0094566   -0.3776973    0.1013438    0.3405240    0.1036320   -0.9345073
   0.0085329   -0.3754919    0.1103570   -0.0410043    0.8287952    0.5580476
   0.0118587   -0.3755239    0.1091744    0.6730747    0.7099058    0.2073747
   0.0116364   -0.3753911    0.1091663    0.4423474    0.8901717    0.1091934
   0.0096583   -0.3753443    0.1096584   -0.0218993    0.9994943   -0.0230536
   0.0092425   -0.3753397    0.1099684    0.0722471    0.9958336    0.0556401
   0.0109749   -0.3752857    0.1092848    0.2486342    0.9495341    0.1912224
   0.0113832   -0.3752346    0.1088959    0.1851150    0.9738808    0.1314865
   0.0105206   -0.3753087    0.1092825   -0.0900342    0.9959086   -0.0077379
   0.0107441   -0.3752899    0.1092495    0.6851784    0.7273988    0.0377042
   0.0070038   -0.3785361    0.1019568   -0.6191063    0.0589983   -0.7830878
   0.0069797   -0.3790610    0.1019360   -0.6940745   -0.0285431   -0.7193371
   0.0061822   -0.3785537    0.1026636   -0.6988928   -0.1149556   -0.7059278
   0.0059939   -0.3780046    0.1027976   -0.8021199    0.0393844   -0.5958629
   0.0056605   -0.3770020    0.1038635   -0.4666570    0.7217951   -0.5111195
   0.0055188   -0.3769385    0.1041230   -0.6538617    0.5863268   -0.4782111
   0.0051991   -0.3765963    0.1051075   -0.7226972    0.5958250   -0.3502876
   0.0053596   -0.3766935    0.1045951   -0.6113415    0.6670052   -0.4258704
   0.0058942   -0.3770876    0.1035309   -0.3535912    0.7987138   -0.4868567
   0.0060618   -0.3772832    0.1031122   -0.3119201    0.8069842   -0.5014802
   0.0062206   -0.3776062    0.1026611   -0.4840029    0.5640317   -0.6690362
   0.0083492   -0.3753358    0.1100784   -0.0976179    0.9246235    0.3681605
   0.0052640   -0.3762368    0.1055205   -0.7453259    0.4919246   -0.4499995
   0.0051379   -0.3757759    0.1061886   -0.6239071    0.5857263   -0.5173631
   0.0056827   -0.3751395    0.1067264   -0.4577713    0.8684805   -0.1902290
   0.0055200   -0.3753094    0.1065337   -0.5427461    0.7680241   -0.3399495
   0.0057381   -0.3754388    0.1060229   -0.4988237    0.6751840   -0.5434165
   0.0064479   -0.3748482    0.1073304   -0.6054456    0.7610529    0.2328822
   0.0067335   -0.3748511    0.1078140   -0.4716418    0.8085730    0.3518006
   0.0065886   -0.3747963    0.1066055   -0.0677819    0.8857958   -0.4590985
   0.0062905   -0.3751188    0.1061270   -0.1306911    0.8168626   -0.5618321
   0.0066418   -0.3746478    0.1069926   -0.3112941    0.9503132   -0.0008908
   0.0058431   -0.3752191    0.1062098   -0.4032003    0.8107646   -0.4243704
   0.0080952   -0.3752921    0.1098390   -0.1389128    0.9607303    0.2402095
   0.0079098   -0.3751735    0.1082738    0.2468352    0.9673286    0.0578603
   0.0069883   -0.3748267    0.1080350   -0.1238427    0.9225177    0.3655464
   0.0080345   -0.3751982    0.1072281    0.3298371    0.9437943   -0.0214404
   0.0075642   -0.3748856    0.1072021    0.4432815    0.8867447   -0.1310928
   0.0071500   -0.3747001    0.1074624    0.2979839    0.9467839    0.1216794
   0.0078246   -0.3791909    0.1014734   -0.3078609   -0.0858464   -0.9475506
   0.0087375   -0.3785388    0.1013049   -0.0980047   -0.0165642   -0.9950481
   0.0080604   -0.3786981    0.1013828   -0.1908533    0.0332428   -0.9810555
   0.0089992   -0.3776949    0.1013113   -0.1267362    0.1771913   -0.9759822
   0.0073947   -0.3791428    0.1016354   -0.4697437   -0.0641594   -0.8804683
   0.0103744   -0.3755488    0.1044396    0.3809458    0.8279862   -0.4114840
   0.0104378   -0.3753743    0.1049032    0.4790494    0.7677730   -0.4254836
   0.0104696   -0.3752441    0.1051183    0.6075899    0.6598065   -0.4421424
   0.0106448   -0.3751332    0.1055900    0.6620662    0.6974541   -0.2742740
   0.0105655   -0.3749804    0.1058173    0.5763147    0.8111049   -0.0998509
   0.0108181   -0.3752343    0.1061141    0.6198527    0.7536992   -0.2184494
   0.0114205   -0.3751474    0.1073122    0.5276655    0.8130493   -0.2460080
   0.0112292   -0.3750538    0.1075700    0.2495674    0.9642846    0.0887204
   0.0113213   -0.3752182    0.1083805    0.2145239    0.9739350    0.0736888
   0.0113568   -0.3753628    0.1068597    0.9373924    0.2982704   -0.1798061
   0.0114515   -0.3753087    0.1070925    0.6152778    0.6747664   -0.4075826
   0.0113257   -0.3753955    0.1066132    0.5275481    0.8281913   -0.1891882
   0.0113568   -0.3753628    0.1068597    0.9240336    0.3738622   -0.0799305
   0.0113568   -0.3753628    0.1068597    0.9774091    0.1819725   -0.1075059
   0.0099886   -0.3770809    0.1017916    0.6533361    0.2274076   -0.7221064
   0.0097408   -0.3771175    0.1016198    0.3941405    0.2837346   -0.8741556
   0.0097686   -0.3768213    0.1017481    0.3639235    0.5010968   -0.7851507
   0.0095782   -0.3765565    0.1019596    0.1590420    0.8246265   -0.5428598
   0.0099919   -0.3760373    0.1033232   -0.0680445    0.9166871   -0.3937698
   0.0093961   -0.3763862    0.1024548   -0.1548852    0.9324216   -0.3264972
   0.0092563   -0.3772749    0.1014164    0.0369829    0.3525363   -0.9350671
   0.0090236   -0.3755223    0.1082300    0.0347515    0.9963683    0.0777336
   0.0098187   -0.3754181    0.1091403   -0.0853672    0.9917892   -0.0952186
   0.0082246   -0.3752856    0.1090343    0.2108046    0.9773328   -0.0195446
   0.0083160   -0.3753468    0.1087888    0.2975161    0.9541404   -0.0331714
   0.0087990   -0.3754904    0.1082379    0.2137853    0.9715556    0.1018601
   0.0109674   -0.3752612    0.1092143    0.0028078    0.9738267    0.2272744
   0.0107441   -0.3752899    0.1092495    0.8190058    0.5525726    0.1545737
   0.0109058   -0.3751846    0.1086829   -0.0168047    0.9984402    0.0532424
   0.0105027   -0.3753104    0.1091378    0.0239878    0.9991771    0.0327059
   0.0107441   -0.3752899    0.1092495    0.9442282    0.3217563    0.0700421
   0.0074458   -0.3780845    0.1017131   -0.4666606    0.2042115   -0.8605380
   0.0066355   -0.3776865    0.1023719   -0.4618020    0.4304194   -0.7755502
   0.0064079   -0.3778861    0.1024321   -0.5433145    0.1544592   -0.8251980
   0.0062005   -0.3778469    0.1025765   -0.6628841    0.1110985   -0.7404335
   0.0064128   -0.3768607    0.1039909    0.0222191    0.9238829   -0.3820297
   0.0059988   -0.3766692    0.1042499   -0.1005904    0.8506468   -0.5160248
   0.0065090   -0.3772296    0.1030419    0.0487597    0.8947027   -0.4439927
   0.0065173   -0.3772055    0.1031038   -0.0996790    0.9276680   -0.3598558
   0.0067002   -0.3773154    0.1027824   -0.1698811    0.8447342   -0.5075083
   0.0069110   -0.3772993    0.1027516    0.0173873    0.9077249   -0.4192055
   0.0073395   -0.3772659    0.1024300   -0.3593196    0.8254982   -0.4352496
   0.0060079   -0.3755001    0.1057959   -0.0415586    0.6955112   -0.7173124
   0.0068998   -0.3746471    0.1072503    0.0205325    0.9955348    0.0921353
   0.0067360   -0.3752483    0.1061069    0.2071451    0.6889880   -0.6945404
   0.0068653   -0.3746482    0.1069649    0.2155343    0.9030140   -0.3716324
   0.0083246   -0.3752733    0.1079901    0.2326442    0.9642618    0.1267905
   0.0079773   -0.3751918    0.1069743    0.4054739    0.8922196   -0.1988343
   0.0081687   -0.3752971    0.1067198    0.1727294    0.9641675   -0.2013595
   0.0093483   -0.3751891    0.1070624   -0.0801640    0.9842250    0.1577178
   0.0074686   -0.3751687    0.1065128    0.2911356    0.8416055   -0.4549069
   0.0078794   -0.3780000    0.1015247   -0.3669063    0.2414507   -0.8983770
   0.0083487   -0.3776279    0.1015303   -0.3298797    0.3567613   -0.8740142
   0.0085855   -0.3773749    0.1015267   -0.3164862    0.4653739   -0.8265976
   0.0102155   -0.3752901    0.1049075    0.6105672    0.7030918   -0.3645127
   0.0102155   -0.3752901    0.1049075    0.9651514    0.1930039   -0.1767267
   0.0103117   -0.3748785    0.1055622    0.3479176    0.8719999   -0.3443394
   0.0102476   -0.3751173    0.1051165    0.3423642    0.7733937   -0.5335250
   0.0105939   -0.3749535    0.1063254    0.4505567    0.8897601   -0.0729771
   0.0101820   -0.3748343    0.1063442    0.1117411    0.9872327    0.1135140
   0.0101203   -0.3747907    0.1058214    0.1280516    0.9895440   -0.0663738
   0.0111341   -0.3752670    0.1068617    0.5784030    0.7756931   -0.2524880
   0.0109750   -0.3750140    0.1073313    0.2005841    0.9738290   -0.1068790
   0.0113887   -0.3752444    0.1070830    0.5981078    0.7053339   -0.3804879
   0.0107822   -0.3750704    0.1076299   -0.1426770    0.9611976    0.2360986
   0.0106200   -0.3752204    0.1082094   -0.2052222    0.9746855    0.0887245
   0.0092896   -0.3769427    0.1015819   -0.0021014    0.5495644   -0.8354487
   0.0090991   -0.3767381    0.1018089   -0.2957137    0.8189060   -0.4918804
   0.0094976   -0.3760373    0.1039031   -0.4839227    0.8148809   -0.3190421
   0.0099602   -0.3753924    0.1047078   -0.2589741    0.8462688   -0.4655766
   0.0090335   -0.3764492    0.1030354   -0.4492919    0.8845069   -0.1256358
   0.0096634   -0.3753891    0.1078553   -0.0752018    0.9492951    0.3052598
   0.0095065   -0.3755233    0.1081704   -0.0902947    0.9843633    0.1512472
   0.0099483   -0.3754661    0.1083591   -0.2380920    0.9703871    0.0407552
   0.0107130   -0.3752370    0.1089802   -0.0258532    0.9925815    0.1188009
   0.0074985   -0.3775442    0.1019671   -0.4071004    0.5533717   -0.7266698
   0.0067322   -0.3772319    0.1030147    0.6091915    0.7505765   -0.2559699
   0.0069494   -0.3771825    0.1032339    0.0935072    0.9589988   -0.2675401
   0.0066987   -0.3767897    0.1044547    0.2404756    0.8923123   -0.3820342
   0.0062856   -0.3764971    0.1046860    0.2624451    0.7987324   -0.5414325
   0.0062304   -0.3761868    0.1051277    0.3047280    0.7641508   -0.5685195
   0.0067322   -0.3772319    0.1030147    0.8196389    0.5409756   -0.1885139
   0.0067322   -0.3772319    0.1030147    0.8253505    0.5507008   -0.1246002
   0.0069553   -0.3772287    0.1029863   -0.2060520    0.9641548   -0.1671770
   0.0078189   -0.3770317    0.1025664   -0.3707509    0.9134003   -0.1680584
   0.0082032   -0.3770554    0.1020066   -0.4145788    0.7176615   -0.5595412
   0.0068602   -0.3760362    0.1055268    0.1668924    0.6975780   -0.6968012
   0.0071483   -0.3756617    0.1059083    0.1594375    0.6808946   -0.7148162
   0.0069914   -0.3751401    0.1063047    0.2577369    0.7239212   -0.6399296
   0.0083417   -0.3754250    0.1063207   -0.1487927    0.9317467   -0.3312233
   0.0090322   -0.3751215    0.1063059   -0.3818620    0.9237921   -0.0280982
   0.0099279   -0.3748062    0.1061088   -0.1963708    0.9740494    0.1125442
   0.0095719   -0.3751273    0.1070179   -0.1640549    0.9295384    0.3302187
   0.0086517   -0.3768559    0.1018964   -0.4194265    0.7492763   -0.5125099
   0.0099881   -0.3752852    0.1049019    0.1447678    0.8185425   -0.5559051
   0.0102155   -0.3752901    0.1049075    0.8379395    0.4146113   -0.3549013
   0.0098654   -0.3748619    0.1056132   -0.2327973    0.9137909   -0.3328537
   0.0099922   -0.3752625    0.1049280   -0.1211212    0.7949472   -0.5944650
   0.0105279   -0.3750385    0.1073936   -0.0996109    0.9558274    0.2765352
   0.0098266   -0.3752256    0.1072797   -0.1884947    0.9108661    0.3671413
   0.0101413   -0.3753612    0.1080476   -0.2387810    0.9474384    0.2129416
   0.0085223   -0.3767202    0.1026540   -0.3883341    0.9167415   -0.0937109
   0.0090643   -0.3757817    0.1049245   -0.4737637    0.7348849   -0.4852753
   0.0089033   -0.3764789    0.1038371   -0.4799435    0.8602882   -0.1719255
