NORM_ASCII
1851 3698
3 331 330 403 
3 402 403 330 
3 400 331 403 
3 336 333 404 
3 404 333 334 
3 405 406 334 
3 334 337 407 
3 334 407 405 
3 334 408 404 
3 409 408 334 
3 334 406 409 
3 404 335 336 
3 402 335 410 
3 335 404 410 
3 337 369 407 
3 338 411 339 
3 338 412 413 
3 414 412 338 
3 338 415 411 
3 338 416 414 
3 413 415 338 
3 350 416 338 
3 417 340 339 
3 417 339 411 
3 340 417 342 
3 341 343 418 
3 341 418 347 
3 419 342 417 
3 342 420 343 
3 421 342 419 
3 420 342 421 
3 422 418 343 
3 422 343 420 
3 349 423 344 
3 424 346 344 
3 424 344 423 
3 346 425 345 
3 345 426 427 
3 352 345 428 
3 426 345 425 
3 428 345 427 
3 346 424 425 
3 347 429 348 
3 430 429 347 
3 431 347 418 
3 430 347 431 
3 429 349 348 
3 349 432 423 
3 432 349 429 
3 351 433 350 
3 350 433 416 
3 351 368 434 
3 435 433 351 
3 434 436 351 
3 435 351 436 
3 428 397 352 
3 353 354 356 
3 437 438 354 
3 439 356 354 
3 354 355 437 
3 439 354 438 
3 355 440 437 
3 355 441 442 
3 355 401 441 
3 442 443 355 
3 443 440 355 
3 356 444 357 
3 356 439 445 
3 444 356 445 
3 357 361 358 
3 444 446 357 
3 361 357 446 
3 359 366 363 
3 360 366 359 
3 447 366 360 
3 448 360 361 
3 360 448 447 
3 446 449 361 
3 361 449 448 
3 366 362 363 
3 450 367 364 
3 364 365 451 
3 451 452 364 
3 364 452 453 
3 453 450 364 
3 451 365 454 
3 447 365 366 
3 454 365 447 
3 367 450 368 
3 434 368 450 
3 369 370 455 
3 407 369 455 
3 455 370 398 
3 456 371 372 
3 456 398 371 
3 372 457 456 
3 373 458 372 
3 457 372 458 
3 459 458 373 
3 460 459 373 
3 375 460 373 
3 386 375 374 
3 461 460 375 
3 461 375 462 
3 462 375 386 
3 463 385 376 
3 464 376 377 
3 376 464 463 
3 377 465 464 
3 465 377 381 
3 381 377 378 
3 383 382 379 
3 466 381 380 
3 380 467 466 
3 467 380 382 
3 381 468 465 
3 468 381 466 
3 382 469 470 
3 382 383 469 
3 382 470 467 
3 384 471 383 
3 471 469 383 
3 389 472 384 
3 471 384 472 
3 386 385 473 
3 463 473 385 
3 473 462 386 
3 394 474 387 
3 387 388 394 
3 390 387 474 
3 389 391 475 
3 475 472 389 
3 476 390 474 
3 390 476 391 
3 476 475 391 
3 392 393 396 
3 396 397 392 
3 397 428 392 
3 395 392 427 
3 427 392 428 
3 474 394 477 
3 394 395 477 
3 427 478 395 
3 478 477 395 
3 455 398 479 
3 479 398 456 
3 480 400 403 
3 401 400 480 
3 480 441 401 
3 480 403 402 
3 402 481 480 
3 481 402 410 
3 410 404 408 
3 405 482 406 
3 483 484 405 
3 405 407 483 
3 405 484 482 
3 406 485 409 
3 406 482 485 
3 479 483 407 
3 455 479 407 
3 409 410 408 
3 409 486 410 
3 485 487 409 
3 409 487 486 
3 488 481 410 
3 486 488 410 
3 417 411 489 
3 415 489 411 
3 412 490 413 
3 414 491 412 
3 491 490 412 
3 490 492 413 
3 415 413 493 
3 413 492 494 
3 413 494 493 
3 416 495 414 
3 414 496 491 
3 495 496 414 
3 415 493 497 
3 415 497 489 
3 495 416 435 
3 433 435 416 
3 489 498 417 
3 417 498 499 
3 417 499 500 
3 417 500 501 
3 419 417 501 
3 431 418 502 
3 502 418 422 
3 421 419 501 
3 503 420 504 
3 420 421 504 
3 422 420 503 
3 421 501 505 
3 506 421 505 
3 421 506 504 
3 422 503 502 
3 423 507 424 
3 508 423 432 
3 423 508 507 
3 507 425 424 
3 426 425 507 
3 427 426 507 
3 478 427 507 
3 432 429 430 
3 509 510 430 
3 430 431 511 
3 512 432 430 
3 430 510 512 
3 430 511 509 
3 502 513 431 
3 511 431 513 
3 514 508 432 
3 432 512 514 
3 515 516 434 
3 434 450 515 
3 436 434 516 
3 435 436 517 
3 495 435 517 
3 516 518 436 
3 518 519 436 
3 436 519 517 
3 520 438 437 
3 520 437 440 
3 438 520 521 
3 522 439 438 
3 438 521 523 
3 438 523 522 
3 445 439 522 
3 521 440 524 
3 440 521 520 
3 443 524 440 
3 442 441 525 
3 441 480 526 
3 525 441 526 
3 527 442 525 
3 443 442 527 
3 528 529 443 
3 443 529 524 
3 527 528 443 
3 444 530 446 
3 530 444 445 
3 445 531 530 
3 531 445 522 
3 446 530 532 
3 533 449 446 
3 532 533 446 
3 447 534 454 
3 448 534 447 
3 448 535 534 
3 449 535 448 
3 449 536 535 
3 533 536 449 
3 453 515 450 
3 451 454 452 
3 452 454 534 
3 537 452 535 
3 534 535 452 
3 453 452 537 
3 453 538 515 
3 453 539 538 
3 537 539 453 
3 457 479 456 
3 540 479 457 
3 540 457 458 
3 458 541 542 
3 541 458 459 
3 543 540 458 
3 458 542 543 
3 541 459 460 
3 460 461 541 
3 461 544 541 
3 545 544 461 
3 545 461 473 
3 473 461 462 
3 546 473 463 
3 547 546 463 
3 464 548 463 
3 547 463 548 
3 468 464 465 
3 549 464 468 
3 548 464 549 
3 550 468 466 
3 551 550 466 
3 552 466 467 
3 551 466 552 
3 470 553 467 
3 467 553 552 
3 468 550 549 
3 470 469 554 
3 554 469 471 
3 555 553 470 
3 555 470 556 
3 470 554 557 
3 470 557 556 
3 471 472 558 
3 554 471 558 
3 475 558 472 
3 473 546 545 
3 559 476 474 
3 477 559 474 
3 475 476 560 
3 560 561 475 
3 558 475 561 
3 476 562 560 
3 563 564 476 
3 476 559 563 
3 564 562 476 
3 565 477 478 
3 563 477 565 
3 559 477 563 
3 508 565 478 
3 478 507 508 
3 479 540 483 
3 480 481 526 
3 566 567 481 
3 526 481 567 
3 488 566 481 
3 482 484 568 
3 569 482 570 
3 482 568 570 
3 482 569 571 
3 485 482 571 
3 483 568 484 
3 568 483 540 
3 485 572 487 
3 573 485 571 
3 574 575 485 
3 574 485 573 
3 575 572 485 
3 576 486 487 
3 577 486 576 
3 488 486 577 
3 578 487 572 
3 576 487 578 
3 577 566 488 
3 489 497 498 
3 491 579 490 
3 490 580 492 
3 579 580 490 
3 496 579 491 
3 580 581 492 
3 492 581 582 
3 492 582 583 
3 494 492 583 
3 493 494 584 
3 493 584 585 
3 585 586 493 
3 497 493 586 
3 494 587 584 
3 583 587 494 
3 517 588 495 
3 495 589 496 
3 588 589 495 
3 589 579 496 
3 590 498 497 
3 586 590 497 
3 499 498 591 
3 498 590 591 
3 500 499 591 
3 592 593 500 
3 500 591 592 
3 593 594 500 
3 595 501 500 
3 500 594 595 
3 501 595 505 
3 503 596 502 
3 597 513 502 
3 502 596 598 
3 597 502 599 
3 599 502 600 
3 600 502 598 
3 596 503 504 
3 504 601 596 
3 506 602 504 
3 601 504 602 
3 505 603 506 
3 505 595 604 
3 604 603 505 
3 506 603 602 
3 565 508 514 
3 605 510 509 
3 509 606 607 
3 605 509 607 
3 511 608 509 
3 606 509 608 
3 512 510 514 
3 514 510 609 
3 510 605 609 
3 513 597 511 
3 511 597 610 
3 608 511 610 
3 609 565 514 
3 516 515 518 
3 515 538 518 
3 588 517 611 
3 612 517 519 
3 611 517 612 
3 518 538 613 
3 519 518 614 
3 613 614 518 
3 519 614 612 
3 523 521 524 
3 615 522 523 
3 615 531 522 
3 523 529 615 
3 523 524 529 
3 525 526 567 
3 567 616 525 
3 617 527 525 
3 617 525 616 
3 617 618 527 
3 528 527 618 
3 529 528 615 
3 618 619 528 
3 615 528 620 
3 619 620 528 
3 531 532 530 
3 531 621 532 
3 622 531 623 
3 621 531 622 
3 531 615 623 
3 624 533 532 
3 625 624 532 
3 625 532 621 
3 533 624 536 
3 535 536 626 
3 626 537 535 
3 536 627 626 
3 624 628 536 
3 536 628 627 
3 629 537 626 
3 539 537 629 
3 629 538 539 
3 613 538 629 
3 570 568 540 
3 543 570 540 
3 542 541 630 
3 544 630 541 
3 542 630 631 
3 631 543 542 
3 632 570 543 
3 543 633 632 
3 633 543 631 
3 544 545 634 
3 635 544 636 
3 635 630 544 
3 634 636 544 
3 634 545 546 
3 637 634 546 
3 637 546 638 
3 639 546 547 
3 638 546 639 
3 547 548 640 
3 639 547 640 
3 548 549 641 
3 640 548 641 
3 641 549 550 
3 641 550 551 
3 552 641 551 
3 552 642 641 
3 552 553 643 
3 642 552 643 
3 555 644 553 
3 643 553 644 
3 557 554 558 
3 644 555 556 
3 556 557 645 
3 644 556 646 
3 646 556 647 
3 556 648 647 
3 648 556 645 
3 557 558 649 
3 649 650 557 
3 645 557 650 
3 649 558 561 
3 560 649 561 
3 560 562 651 
3 649 560 652 
3 653 560 651 
3 560 654 655 
3 560 653 654 
3 655 652 560 
3 564 651 562 
3 563 656 564 
3 656 563 565 
3 657 651 564 
3 564 656 658 
3 657 564 658 
3 565 609 656 
3 567 566 659 
3 660 566 577 
3 659 566 660 
3 567 661 616 
3 661 567 659 
3 570 632 569 
3 571 569 632 
3 662 573 571 
3 571 632 662 
3 575 663 572 
3 572 663 578 
3 664 574 573 
3 573 662 664 
3 663 575 574 
3 665 663 574 
3 574 664 666 
3 665 574 666 
3 576 667 668 
3 669 576 578 
3 576 669 667 
3 668 577 576 
3 660 577 668 
3 670 578 671 
3 578 663 665 
3 669 578 670 
3 671 578 665 
3 672 579 589 
3 672 580 579 
3 672 673 580 
3 581 580 673 
3 674 581 675 
3 582 581 674 
3 676 675 581 
3 673 676 581 
3 582 587 583 
3 582 674 587 
3 585 584 677 
3 587 678 584 
3 584 678 679 
3 584 679 677 
3 677 586 585 
3 586 677 680 
3 586 680 590 
3 674 681 587 
3 587 681 678 
3 588 611 589 
3 589 611 682 
3 672 589 682 
3 591 590 680 
3 680 592 591 
3 683 593 592 
3 592 684 683 
3 592 680 684 
3 685 593 683 
3 594 593 685 
3 685 595 594 
3 604 595 685 
3 596 686 598 
3 686 596 601 
3 687 610 597 
3 597 599 687 
3 598 688 689 
3 690 598 686 
3 688 598 690 
3 600 598 689 
3 691 687 599 
3 691 599 692 
3 600 692 599 
3 689 693 600 
3 692 600 694 
3 695 600 693 
3 694 600 695 
3 601 696 686 
3 601 602 696 
3 697 696 602 
3 602 603 697 
3 604 697 603 
3 604 685 698 
3 699 700 604 
3 697 604 700 
3 698 699 604 
3 609 605 701 
3 701 605 607 
3 702 607 606 
3 608 702 606 
3 607 702 703 
3 703 701 607 
3 702 608 610 
3 609 701 658 
3 609 658 656 
3 704 610 691 
3 691 610 687 
3 610 704 702 
3 682 611 705 
3 705 611 612 
3 612 614 706 
3 705 612 706 
3 707 614 613 
3 707 613 628 
3 628 613 629 
3 707 706 614 
3 708 709 615 
3 709 623 615 
3 615 620 708 
3 616 661 617 
3 618 617 661 
3 710 618 661 
3 711 619 618 
3 711 618 710 
3 712 619 711 
3 620 619 712 
3 713 714 620 
3 714 708 620 
3 712 713 620 
3 715 625 621 
3 622 715 621 
3 623 716 622 
3 717 715 622 
3 675 622 716 
3 675 717 622 
3 623 718 719 
3 718 623 709 
3 719 716 623 
3 625 720 624 
3 624 720 628 
3 625 715 720 
3 626 627 629 
3 628 629 627 
3 628 721 707 
3 720 721 628 
3 631 630 722 
3 635 722 630 
3 633 631 723 
3 722 723 631 
3 662 632 633 
3 633 724 662 
3 633 723 724 
3 636 634 637 
3 725 635 636 
3 725 722 635 
3 726 636 638 
3 638 636 637 
3 725 636 726 
3 638 727 726 
3 727 638 639 
3 727 639 728 
3 728 639 640 
3 728 640 729 
3 640 641 642 
3 729 640 642 
3 642 643 729 
3 643 644 730 
3 731 732 643 
3 643 730 733 
3 734 729 643 
3 732 734 643 
3 733 731 643 
3 644 646 730 
3 645 650 735 
3 645 736 648 
3 735 736 645 
3 647 737 646 
3 737 730 646 
3 738 737 647 
3 738 647 648 
3 736 739 648 
3 740 741 648 
3 648 741 742 
3 648 739 740 
3 742 738 648 
3 652 743 649 
3 744 649 743 
3 744 650 649 
3 735 650 744 
3 653 651 745 
3 745 651 657 
3 746 743 652 
3 746 652 655 
3 654 653 745 
3 746 655 654 
3 745 747 654 
3 748 654 749 
3 654 747 750 
3 746 654 748 
3 654 751 749 
3 752 751 654 
3 654 750 752 
3 747 745 657 
3 657 658 753 
3 657 753 747 
3 658 701 754 
3 753 658 754 
3 660 755 659 
3 756 659 755 
3 757 661 659 
3 659 758 757 
3 756 758 659 
3 660 668 759 
3 660 759 755 
3 710 661 757 
3 662 724 664 
3 666 664 760 
3 760 664 724 
3 665 761 671 
3 665 762 761 
3 665 666 762 
3 762 666 760 
3 763 668 667 
3 667 764 765 
3 667 669 764 
3 763 667 765 
3 766 759 668 
3 766 668 763 
3 670 764 669 
3 671 767 670 
3 767 764 670 
3 768 671 769 
3 671 770 767 
3 761 771 671 
3 770 671 768 
3 769 671 771 
3 673 672 682 
3 682 676 673 
3 675 772 674 
3 772 681 674 
3 675 716 772 
3 675 676 717 
3 676 682 705 
3 717 676 705 
3 679 773 677 
3 677 773 680 
3 678 716 719 
3 678 681 772 
3 772 716 678 
3 719 679 678 
3 719 773 679 
3 680 773 774 
3 680 774 684 
3 684 775 683 
3 683 775 685 
3 774 775 684 
3 698 685 775 
3 776 777 686 
3 686 696 776 
3 778 690 686 
3 778 686 779 
3 686 777 779 
3 689 688 693 
3 780 688 781 
3 780 693 688 
3 781 688 690 
3 781 690 778 
3 691 782 704 
3 691 783 784 
3 783 691 692 
3 782 691 784 
3 783 692 694 
3 693 780 695 
3 785 694 786 
3 783 694 785 
3 694 695 786 
3 695 780 787 
3 786 695 787 
3 700 788 696 
3 776 696 788 
3 696 697 700 
3 789 708 698 
3 790 698 708 
3 698 775 789 
3 698 790 699 
3 788 700 699 
3 791 792 699 
3 790 791 699 
3 788 699 792 
3 701 703 754 
3 704 703 702 
3 703 793 753 
3 753 754 703 
3 703 704 782 
3 793 703 782 
3 717 705 706 
3 721 706 707 
3 706 721 717 
3 709 708 789 
3 708 714 790 
3 775 718 709 
3 709 789 775 
3 757 794 710 
3 795 710 794 
3 711 710 795 
3 711 795 796 
3 796 712 711 
3 712 797 713 
3 797 712 796 
3 790 714 713 
3 713 791 790 
3 791 713 797 
3 721 715 717 
3 720 715 721 
3 719 718 773 
3 775 774 718 
3 773 718 774 
3 798 723 722 
3 798 722 725 
3 724 723 798 
3 760 724 799 
3 798 800 724 
3 724 800 799 
3 801 725 726 
3 802 725 801 
3 802 799 725 
3 725 800 798 
3 799 800 725 
3 801 726 803 
3 727 804 726 
3 805 803 726 
3 726 804 805 
3 804 727 806 
3 807 806 727 
3 807 727 728 
3 807 728 729 
3 808 729 734 
3 808 807 729 
3 730 737 733 
3 732 731 809 
3 731 733 809 
3 732 809 810 
3 811 732 812 
3 811 734 732 
3 732 810 812 
3 813 814 733 
3 733 814 809 
3 737 813 733 
3 815 808 734 
3 815 734 811 
3 736 735 739 
3 744 743 735 
3 743 816 735 
3 739 735 816 
3 813 737 738 
3 817 738 742 
3 813 738 817 
3 740 739 818 
3 816 818 739 
3 819 741 740 
3 740 820 819 
3 740 821 822 
3 822 820 740 
3 740 818 821 
3 823 742 741 
3 741 819 823 
3 823 817 742 
3 816 743 746 
3 816 746 748 
3 750 747 753 
3 749 818 748 
3 748 818 816 
3 749 824 818 
3 824 749 825 
3 825 749 751 
3 826 750 753 
3 752 750 827 
3 826 827 750 
3 825 751 752 
3 827 828 752 
3 829 752 828 
3 829 830 752 
3 830 825 752 
3 753 831 826 
3 753 832 831 
3 753 833 832 
3 793 834 753 
3 835 833 753 
3 753 834 835 
3 755 759 766 
3 766 756 755 
3 756 766 836 
3 756 836 837 
3 756 837 758 
3 838 757 758 
3 794 757 838 
3 839 840 758 
3 758 837 839 
3 838 758 840 
3 841 762 760 
3 841 760 799 
3 841 761 762 
3 771 761 841 
3 763 842 836 
3 842 763 765 
3 766 763 836 
3 765 764 767 
3 842 765 843 
3 767 843 765 
3 844 767 770 
3 843 767 845 
3 846 845 767 
3 767 847 846 
3 844 847 767 
3 769 848 768 
3 848 849 768 
3 768 849 770 
3 801 769 802 
3 848 769 803 
3 771 802 769 
3 801 803 769 
3 770 849 850 
3 770 850 844 
3 771 799 802 
3 799 771 841 
3 776 851 777 
3 788 851 776 
3 777 851 852 
3 852 853 777 
3 777 854 855 
3 777 853 854 
3 777 855 779 
3 779 856 778 
3 856 781 778 
3 856 779 857 
3 857 779 855 
3 858 780 781 
3 780 858 859 
3 787 780 859 
3 858 781 856 
3 784 860 782 
3 793 782 861 
3 861 782 860 
3 784 783 860 
3 862 863 783 
3 863 860 783 
3 862 783 785 
3 786 864 785 
3 785 865 866 
3 785 867 862 
3 867 785 866 
3 865 785 864 
3 859 786 787 
3 859 868 786 
3 864 786 869 
3 786 868 869 
3 870 788 792 
3 788 870 871 
3 788 871 851 
3 797 872 791 
3 792 791 873 
3 791 872 873 
3 792 873 874 
3 792 874 870 
3 834 793 861 
3 838 795 794 
3 875 795 838 
3 795 875 796 
3 796 872 797 
3 876 796 875 
3 872 796 877 
3 796 876 877 
3 803 878 848 
3 879 878 803 
3 805 879 803 
3 804 880 805 
3 806 880 804 
3 880 879 805 
3 806 881 880 
3 882 881 806 
3 806 807 882 
3 883 884 807 
3 884 885 807 
3 807 885 882 
3 808 883 807 
3 808 886 883 
3 815 887 808 
3 808 887 886 
3 809 814 888 
3 810 809 888 
3 889 810 890 
3 889 812 810 
3 890 810 888 
3 812 889 811 
3 811 891 815 
3 811 889 892 
3 892 891 811 
3 814 813 888 
3 893 888 813 
3 893 813 817 
3 891 894 815 
3 815 894 887 
3 893 817 823 
3 818 895 821 
3 896 895 818 
3 824 896 818 
3 823 819 893 
3 819 897 893 
3 819 820 897 
3 820 898 897 
3 822 899 820 
3 820 899 898 
3 821 900 822 
3 895 900 821 
3 900 899 822 
3 901 824 902 
3 824 825 903 
3 824 901 904 
3 824 904 896 
3 902 824 903 
3 903 825 830 
3 827 826 905 
3 826 906 905 
3 826 831 906 
3 905 828 827 
3 828 907 829 
3 828 908 907 
3 908 828 905 
3 829 907 909 
3 829 909 830 
3 830 909 910 
3 903 830 910 
3 831 832 911 
3 906 831 911 
3 832 912 911 
3 833 912 832 
3 913 833 835 
3 833 913 914 
3 915 912 833 
3 914 915 833 
3 835 834 861 
3 913 835 916 
3 835 861 916 
3 836 917 918 
3 836 842 917 
3 837 836 918 
3 919 920 837 
3 837 918 919 
3 839 837 920 
3 840 921 838 
3 838 921 875 
3 840 839 920 
3 920 922 840 
3 921 840 922 
3 917 842 843 
3 917 843 845 
3 923 847 844 
3 850 923 844 
3 845 846 918 
3 918 917 845 
3 918 846 847 
3 847 924 918 
3 847 923 924 
3 925 849 848 
3 926 848 878 
3 925 848 926 
3 849 927 850 
3 849 925 927 
3 850 928 923 
3 928 850 927 
3 851 871 929 
3 853 851 929 
3 853 852 851 
3 853 929 854 
3 930 855 854 
3 931 854 932 
3 854 933 934 
3 871 932 854 
3 854 929 871 
3 931 933 854 
3 930 854 934 
3 855 935 936 
3 937 857 855 
3 935 855 930 
3 936 937 855 
3 937 858 856 
3 856 857 937 
3 858 937 859 
3 938 868 859 
3 859 937 938 
3 861 860 939 
3 939 860 863 
3 939 916 861 
3 940 863 862 
3 862 867 940 
3 863 940 939 
3 941 865 864 
3 942 941 864 
3 942 864 869 
3 866 865 941 
3 867 866 943 
3 944 943 866 
3 866 941 942 
3 944 866 942 
3 943 940 867 
3 945 868 938 
3 946 868 945 
3 869 868 946 
3 869 946 947 
3 947 942 869 
3 870 874 932 
3 871 870 932 
3 948 872 877 
3 873 872 948 
3 948 874 873 
3 948 949 874 
3 874 949 950 
3 951 874 950 
3 874 951 932 
3 875 921 952 
3 876 875 952 
3 877 876 952 
3 949 877 953 
3 877 949 948 
3 953 877 954 
3 954 877 952 
3 926 878 879 
3 879 881 926 
3 881 879 880 
3 926 881 955 
3 956 955 881 
3 882 956 881 
3 885 956 882 
3 884 883 886 
3 886 957 884 
3 884 957 885 
3 885 957 956 
3 887 958 886 
3 886 958 957 
3 887 894 958 
3 890 888 893 
3 890 959 889 
3 959 892 889 
3 959 890 960 
3 961 960 890 
3 893 962 890 
3 961 890 962 
3 891 963 894 
3 892 963 891 
3 963 892 964 
3 959 964 892 
3 897 962 893 
3 958 894 965 
3 963 965 894 
3 966 967 895 
3 900 895 967 
3 896 966 895 
3 904 966 896 
3 961 962 897 
3 968 961 897 
3 897 969 968 
3 970 897 901 
3 898 901 897 
3 969 897 970 
3 898 899 971 
3 972 898 971 
3 898 972 901 
3 971 899 967 
3 900 967 899 
3 901 902 973 
3 901 974 970 
3 901 972 904 
3 901 975 976 
3 974 901 977 
3 975 901 978 
3 978 901 973 
3 976 977 901 
3 979 902 903 
3 973 902 979 
3 980 979 903 
3 980 903 910 
3 972 971 904 
3 904 971 967 
3 904 967 966 
3 905 906 908 
3 911 981 906 
3 982 906 983 
3 984 985 906 
3 981 983 906 
3 906 982 984 
3 985 908 906 
3 909 907 908 
3 910 909 908 
3 910 908 986 
3 986 908 985 
3 910 987 980 
3 910 986 988 
3 910 988 987 
3 911 912 989 
3 911 989 981 
3 912 915 989 
3 913 916 939 
3 913 939 914 
3 914 990 915 
3 991 914 939 
3 990 914 991 
3 990 989 915 
3 992 993 918 
3 993 919 918 
3 924 992 918 
3 994 920 919 
3 919 993 995 
3 919 996 994 
3 995 996 919 
3 997 922 920 
3 920 994 997 
3 952 921 922 
3 922 998 999 
3 997 998 922 
3 999 1000 922 
3 922 1000 952 
3 1001 924 923 
3 1001 923 928 
3 1002 992 924 
3 1002 924 1001 
3 926 1003 925 
3 925 1004 1005 
3 1005 927 925 
3 1006 1004 925 
3 1003 1006 925 
3 955 1003 926 
3 1001 928 927 
3 1007 1001 927 
3 1007 927 1005 
3 1008 935 930 
3 1009 930 1010 
3 930 934 1010 
3 1011 1008 930 
3 1011 930 1012 
3 1013 1012 930 
3 930 1009 1013 
3 931 932 1014 
3 933 931 1010 
3 1015 931 1014 
3 1010 931 1015 
3 932 951 1014 
3 1010 934 933 
3 935 1008 936 
3 1016 938 936 
3 938 937 936 
3 936 1008 1017 
3 1016 936 1017 
3 938 1016 945 
3 1018 939 940 
3 991 939 1018 
3 943 1018 940 
3 947 1019 942 
3 944 942 1019 
3 1020 943 944 
3 943 1020 1018 
3 1020 944 1021 
3 944 1019 1022 
3 1022 1021 944 
3 946 945 1016 
3 947 946 1023 
3 1024 946 1025 
3 1025 946 1017 
3 1024 1026 946 
3 1027 946 1026 
3 946 1028 1023 
3 946 1016 1017 
3 1027 1028 946 
3 1029 1030 947 
3 947 1030 1031 
3 1031 1019 947 
3 947 1023 1029 
3 949 953 1032 
3 1033 950 949 
3 1033 949 1032 
3 951 950 1034 
3 1034 950 1033 
3 951 1035 1036 
3 951 1034 1035 
3 1014 951 1037 
3 1036 1037 951 
3 954 952 1000 
3 1038 1032 953 
3 1038 953 1039 
3 953 954 1039 
3 1039 954 1040 
3 1040 954 1000 
3 1041 1003 955 
3 1041 955 956 
3 956 957 1041 
3 1041 957 958 
3 1041 958 965 
3 959 1042 964 
3 960 1043 959 
3 1042 959 1043 
3 1044 1045 960 
3 961 1044 960 
3 1045 1043 960 
3 968 1044 961 
3 965 963 1046 
3 964 1046 963 
3 964 1042 1046 
3 1047 1041 965 
3 965 1046 1047 
3 969 1048 968 
3 1044 968 1048 
3 969 970 1049 
3 1050 969 1051 
3 1048 969 1050 
3 1051 969 1049 
3 974 1049 970 
3 973 979 980 
3 1052 978 973 
3 973 980 1053 
3 1052 973 1053 
3 974 1054 1055 
3 1054 974 977 
3 974 1056 1049 
3 1055 1056 974 
3 976 975 1057 
3 1057 975 1052 
3 1052 975 978 
3 977 976 1054 
3 1058 1059 976 
3 1059 1054 976 
3 976 1057 1058 
3 980 1060 1053 
3 987 1060 980 
3 981 989 990 
3 1061 983 981 
3 981 990 1061 
3 983 1062 982 
3 982 1063 984 
3 1064 1063 982 
3 1065 982 1062 
3 982 1065 1066 
3 1066 1064 982 
3 983 1061 1062 
3 1067 985 984 
3 984 1063 1068 
3 1067 984 1068 
3 1067 986 985 
3 988 986 1067 
3 1060 987 1069 
3 987 1070 1069 
3 1070 987 988 
3 1071 988 1067 
3 1070 988 1071 
3 1061 990 991 
3 1018 1020 991 
3 991 1072 1061 
3 1072 991 1020 
3 993 992 1073 
3 1073 992 1002 
3 993 1073 1074 
3 1074 1075 993 
3 1075 995 993 
3 996 1076 994 
3 997 994 1077 
3 1076 1078 994 
3 1077 994 1078 
3 995 1075 1079 
3 996 995 1080 
3 1080 995 1079 
3 1080 1076 996 
3 998 997 1077 
3 1081 999 998 
3 1082 998 1077 
3 998 1082 1081 
3 1000 999 1040 
3 1083 1040 999 
3 1081 1084 999 
3 1085 1083 999 
3 999 1084 1086 
3 1085 999 1087 
3 1087 999 1086 
3 1088 1002 1001 
3 1088 1001 1007 
3 1002 1088 1073 
3 1041 1089 1003 
3 1006 1003 1089 
3 1005 1004 1090 
3 1089 1004 1006 
3 1004 1091 1090 
3 1092 1091 1004 
3 1004 1089 1092 
3 1090 1007 1005 
3 1007 1090 1088 
3 1008 1011 1017 
3 1093 1009 1010 
3 1009 1093 1094 
3 1095 1013 1009 
3 1009 1094 1095 
3 1015 1096 1010 
3 1010 1096 1093 
3 1097 1011 1012 
3 1017 1011 1097 
3 1097 1012 1025 
3 1025 1012 1098 
3 1012 1099 1100 
3 1013 1099 1012 
3 1098 1012 1100 
3 1101 1013 1095 
3 1013 1101 1099 
3 1015 1014 1037 
3 1102 1096 1015 
3 1037 1102 1015 
3 1017 1097 1025 
3 1019 1031 1022 
3 1020 1103 1072 
3 1021 1103 1020 
3 1103 1021 1065 
3 1021 1022 1104 
3 1021 1104 1065 
3 1022 1031 1105 
3 1022 1105 1104 
3 1023 1028 1106 
3 1023 1106 1107 
3 1023 1107 1029 
3 1025 1108 1024 
3 1024 1109 1026 
3 1109 1024 1108 
3 1108 1025 1098 
3 1110 1026 1111 
3 1026 1110 1027 
3 1026 1109 1112 
3 1112 1111 1026 
3 1028 1027 1106 
3 1027 1113 1106 
3 1113 1027 1110 
3 1029 1107 1030 
3 1114 1031 1030 
3 1114 1030 1107 
3 1105 1031 1114 
3 1115 1032 1116 
3 1032 1038 1117 
3 1117 1116 1032 
3 1032 1115 1033 
3 1034 1033 1115 
3 1035 1034 1115 
3 1118 1036 1035 
3 1115 1116 1035 
3 1116 1118 1035 
3 1119 1036 1120 
3 1037 1036 1119 
3 1118 1120 1036 
3 1037 1119 1102 
3 1039 1121 1038 
3 1038 1121 1117 
3 1039 1040 1122 
3 1121 1039 1122 
3 1122 1040 1123 
3 1040 1083 1123 
3 1041 1047 1089 
3 1047 1046 1042 
3 1047 1042 1124 
3 1124 1042 1043 
3 1125 1043 1045 
3 1125 1124 1043 
3 1045 1044 1126 
3 1048 1126 1044 
3 1045 1127 1125 
3 1127 1045 1126 
3 1092 1089 1047 
3 1124 1092 1047 
3 1126 1048 1128 
3 1050 1128 1048 
3 1049 1129 1051 
3 1049 1056 1129 
3 1130 1050 1051 
3 1128 1050 1130 
3 1051 1131 1130 
3 1051 1129 1131 
3 1053 1132 1052 
3 1057 1052 1133 
3 1052 1132 1133 
3 1069 1053 1060 
3 1132 1053 1069 
3 1055 1054 1134 
3 1134 1054 1059 
3 1135 1055 1134 
3 1055 1129 1056 
3 1055 1135 1131 
3 1129 1055 1131 
3 1136 1058 1057 
3 1133 1136 1057 
3 1137 1059 1058 
3 1058 1136 1138 
3 1137 1058 1139 
3 1138 1139 1058 
3 1059 1137 1140 
3 1140 1134 1059 
3 1061 1141 1062 
3 1141 1061 1142 
3 1061 1072 1142 
3 1062 1141 1065 
3 1068 1063 1064 
3 1143 1144 1064 
3 1064 1066 1143 
3 1145 1068 1064 
3 1146 1145 1064 
3 1064 1144 1146 
3 1142 1065 1141 
3 1104 1147 1065 
3 1065 1142 1103 
3 1147 1066 1065 
3 1066 1147 1143 
3 1067 1148 1071 
3 1148 1067 1068 
3 1068 1145 1148 
3 1133 1132 1069 
3 1069 1149 1150 
3 1150 1133 1069 
3 1069 1070 1149 
3 1149 1070 1071 
3 1071 1151 1149 
3 1071 1152 1151 
3 1152 1071 1153 
3 1071 1148 1153 
3 1072 1103 1142 
3 1154 1074 1073 
3 1088 1155 1073 
3 1154 1073 1155 
3 1156 1075 1074 
3 1156 1074 1157 
3 1154 1157 1074 
3 1158 1079 1075 
3 1158 1075 1156 
3 1078 1076 1159 
3 1160 1076 1080 
3 1159 1076 1160 
3 1077 1161 1082 
3 1161 1077 1078 
3 1078 1162 1161 
3 1163 1078 1159 
3 1162 1078 1163 
3 1164 1079 1158 
3 1079 1165 1080 
3 1164 1165 1079 
3 1166 1080 1165 
3 1080 1166 1160 
3 1167 1081 1082 
3 1084 1081 1167 
3 1161 1162 1082 
3 1082 1162 1168 
3 1082 1168 1167 
3 1169 1170 1083 
3 1170 1123 1083 
3 1083 1085 1169 
3 1171 1084 1172 
3 1171 1086 1084 
3 1167 1172 1084 
3 1087 1169 1085 
3 1086 1173 1087 
3 1086 1171 1173 
3 1174 1087 1175 
3 1176 1087 1173 
3 1087 1174 1169 
3 1087 1177 1175 
3 1177 1087 1176 
3 1088 1090 1155 
3 1090 1091 1178 
3 1090 1178 1179 
3 1179 1155 1090 
3 1091 1180 1178 
3 1091 1181 1180 
3 1091 1092 1182 
3 1181 1091 1182 
3 1124 1182 1092 
3 1183 1093 1096 
3 1184 1093 1183 
3 1093 1184 1094 
3 1094 1185 1186 
3 1094 1187 1095 
3 1186 1188 1094 
3 1187 1094 1188 
3 1185 1094 1184 
3 1189 1101 1095 
3 1095 1187 1189 
3 1096 1190 1183 
3 1096 1102 1190 
3 1191 1192 1098 
3 1100 1191 1098 
3 1193 1098 1192 
3 1098 1109 1108 
3 1109 1098 1193 
3 1194 1100 1099 
3 1195 1099 1196 
3 1099 1101 1196 
3 1194 1099 1195 
3 1100 1194 1191 
3 1101 1189 1197 
3 1101 1197 1196 
3 1198 1190 1102 
3 1102 1119 1198 
3 1104 1105 1199 
3 1200 1104 1199 
3 1201 1104 1200 
3 1201 1147 1104 
3 1105 1114 1199 
3 1114 1107 1106 
3 1106 1113 1114 
3 1112 1109 1202 
3 1203 1109 1193 
3 1203 1202 1109 
3 1110 1111 1204 
3 1204 1205 1110 
3 1200 1110 1201 
3 1110 1205 1201 
3 1110 1200 1113 
3 1111 1112 1202 
3 1206 1111 1202 
3 1207 1204 1111 
3 1207 1111 1206 
3 1199 1113 1200 
3 1199 1114 1113 
3 1208 1116 1209 
3 1209 1116 1117 
3 1116 1208 1118 
3 1209 1117 1210 
3 1117 1121 1170 
3 1210 1117 1170 
3 1208 1120 1118 
3 1211 1119 1120 
3 1212 1213 1119 
3 1214 1198 1119 
3 1119 1213 1215 
3 1119 1211 1212 
3 1214 1119 1215 
3 1120 1208 1211 
3 1123 1121 1122 
3 1121 1123 1170 
3 1124 1216 1182 
3 1124 1125 1217 
3 1217 1216 1124 
3 1218 1217 1125 
3 1125 1219 1218 
3 1220 1221 1125 
3 1219 1125 1221 
3 1125 1127 1220 
3 1220 1127 1126 
3 1126 1128 1220 
3 1220 1128 1130 
3 1130 1131 1135 
3 1220 1130 1135 
3 1133 1138 1136 
3 1133 1222 1138 
3 1150 1222 1133 
3 1223 1135 1134 
3 1134 1224 1223 
3 1134 1140 1224 
3 1135 1223 1220 
3 1225 1137 1139 
3 1226 1227 1137 
3 1227 1140 1137 
3 1137 1228 1226 
3 1225 1228 1137 
3 1138 1222 1229 
3 1139 1138 1229 
3 1230 1231 1139 
3 1139 1232 1225 
3 1230 1139 1229 
3 1231 1232 1139 
3 1224 1140 1233 
3 1140 1227 1233 
3 1234 1144 1143 
3 1234 1143 1201 
3 1143 1147 1201 
3 1146 1144 1235 
3 1144 1236 1235 
3 1234 1236 1144 
3 1146 1148 1145 
3 1148 1146 1153 
3 1153 1146 1235 
3 1150 1149 1237 
3 1151 1238 1149 
3 1239 1237 1149 
3 1149 1238 1239 
3 1237 1240 1150 
3 1241 1222 1150 
3 1242 1241 1150 
3 1243 1242 1150 
3 1243 1150 1240 
3 1244 1151 1245 
3 1151 1244 1238 
3 1151 1152 1245 
3 1245 1152 1153 
3 1246 1247 1153 
3 1153 1235 1246 
3 1248 1153 1247 
3 1249 1245 1153 
3 1153 1250 1249 
3 1251 1153 1248 
3 1250 1153 1251 
3 1157 1154 1179 
3 1179 1154 1155 
3 1156 1157 1252 
3 1156 1253 1158 
3 1156 1252 1253 
3 1252 1157 1179 
3 1158 1253 1164 
3 1163 1159 1254 
3 1159 1255 1256 
3 1160 1255 1159 
3 1256 1254 1159 
3 1166 1255 1160 
3 1257 1162 1163 
3 1168 1162 1258 
3 1162 1257 1258 
3 1257 1163 1254 
3 1259 1164 1253 
3 1165 1164 1259 
3 1259 1166 1165 
3 1260 1166 1259 
3 1260 1255 1166 
3 1172 1167 1168 
3 1168 1258 1172 
3 1174 1170 1169 
3 1261 1170 1174 
3 1261 1262 1170 
3 1210 1170 1262 
3 1172 1263 1171 
3 1171 1263 1264 
3 1173 1171 1264 
3 1172 1265 1263 
3 1265 1172 1258 
3 1173 1264 1176 
3 1175 1266 1174 
3 1267 1261 1174 
3 1174 1266 1267 
3 1175 1268 1269 
3 1268 1175 1177 
3 1175 1269 1270 
3 1270 1266 1175 
3 1264 1271 1176 
3 1176 1272 1177 
3 1272 1176 1271 
3 1177 1272 1273 
3 1177 1273 1268 
3 1178 1253 1252 
3 1274 1259 1178 
3 1178 1218 1274 
3 1178 1259 1253 
3 1180 1218 1178 
3 1178 1252 1179 
3 1180 1181 1275 
3 1218 1180 1275 
3 1182 1275 1181 
3 1182 1216 1275 
3 1198 1276 1183 
3 1183 1190 1198 
3 1183 1276 1184 
3 1185 1184 1277 
3 1278 1184 1276 
3 1277 1184 1278 
3 1185 1279 1186 
3 1277 1280 1185 
3 1281 1185 1280 
3 1282 1283 1185 
3 1185 1281 1282 
3 1283 1279 1185 
3 1284 1186 1279 
3 1188 1186 1284 
3 1187 1188 1189 
3 1285 1188 1284 
3 1285 1197 1188 
3 1189 1188 1197 
3 1194 1192 1191 
3 1194 1286 1192 
3 1286 1287 1192 
3 1288 1193 1192 
3 1192 1287 1288 
3 1193 1289 1203 
3 1289 1193 1288 
3 1290 1194 1195 
3 1286 1194 1290 
3 1196 1291 1195 
3 1195 1291 1290 
3 1196 1285 1292 
3 1196 1197 1285 
3 1292 1291 1196 
3 1276 1198 1214 
3 1201 1205 1293 
3 1293 1234 1201 
3 1206 1202 1294 
3 1202 1203 1294 
3 1203 1289 1294 
3 1204 1293 1205 
3 1293 1204 1295 
3 1295 1204 1207 
3 1296 1206 1294 
3 1297 1206 1296 
3 1297 1298 1206 
3 1206 1299 1207 
3 1300 1299 1206 
3 1300 1206 1298 
3 1295 1207 1301 
3 1299 1301 1207 
3 1209 1302 1208 
3 1211 1208 1302 
3 1209 1303 1302 
3 1209 1210 1303 
3 1262 1303 1210 
3 1302 1212 1211 
3 1213 1212 1304 
3 1212 1302 1304 
3 1305 1215 1213 
3 1213 1306 1305 
3 1304 1306 1213 
3 1215 1276 1214 
3 1215 1307 1278 
3 1278 1276 1215 
3 1307 1215 1305 
3 1216 1308 1275 
3 1308 1216 1217 
3 1218 1308 1217 
3 1274 1218 1219 
3 1218 1275 1308 
3 1274 1219 1309 
3 1309 1219 1310 
3 1310 1219 1311 
3 1221 1311 1219 
3 1223 1221 1220 
3 1221 1312 1311 
3 1312 1221 1223 
3 1222 1241 1229 
3 1224 1312 1223 
3 1233 1313 1224 
3 1224 1314 1312 
3 1224 1313 1314 
3 1232 1228 1225 
3 1227 1226 1315 
3 1226 1316 1313 
3 1228 1316 1226 
3 1315 1226 1313 
3 1227 1315 1313 
3 1313 1233 1227 
3 1232 1316 1228 
3 1229 1317 1230 
3 1229 1318 1317 
3 1229 1241 1242 
3 1242 1318 1229 
3 1231 1230 1319 
3 1320 1230 1321 
3 1230 1320 1319 
3 1317 1321 1230 
3 1231 1322 1232 
3 1323 1322 1231 
3 1324 1325 1231 
3 1319 1326 1231 
3 1231 1325 1323 
3 1326 1324 1231 
3 1327 1316 1232 
3 1327 1232 1322 
3 1246 1236 1234 
3 1328 1234 1293 
3 1328 1329 1234 
3 1246 1234 1329 
3 1236 1246 1235 
3 1330 1237 1331 
3 1330 1240 1237 
3 1239 1331 1237 
3 1238 1244 1332 
3 1238 1332 1239 
3 1239 1333 1331 
3 1334 1239 1332 
3 1335 1239 1334 
3 1333 1239 1335 
3 1336 1240 1330 
3 1243 1240 1336 
3 1242 1337 1338 
3 1338 1318 1242 
3 1337 1242 1243 
3 1336 1339 1243 
3 1340 1243 1341 
3 1243 1339 1341 
3 1337 1243 1340 
3 1244 1245 1249 
3 1244 1342 1332 
3 1342 1244 1249 
3 1343 1247 1246 
3 1329 1343 1246 
3 1248 1247 1343 
3 1344 1248 1343 
3 1251 1248 1344 
3 1249 1345 1342 
3 1346 1249 1347 
3 1346 1348 1249 
3 1250 1349 1249 
3 1249 1349 1347 
3 1348 1345 1249 
3 1250 1350 1351 
3 1250 1351 1349 
3 1250 1251 1352 
3 1352 1350 1250 
3 1344 1352 1251 
3 1353 1254 1256 
3 1353 1257 1254 
3 1256 1255 1260 
3 1260 1354 1256 
3 1354 1353 1256 
3 1355 1257 1353 
3 1356 1357 1257 
3 1357 1258 1257 
3 1356 1257 1355 
3 1265 1258 1357 
3 1260 1259 1274 
3 1274 1354 1260 
3 1358 1261 1359 
3 1261 1358 1262 
3 1360 1261 1267 
3 1359 1261 1360 
3 1303 1262 1358 
3 1271 1263 1265 
3 1271 1264 1263 
3 1271 1265 1357 
3 1266 1270 1361 
3 1266 1361 1360 
3 1360 1267 1266 
3 1269 1268 1273 
3 1269 1362 1270 
3 1362 1269 1273 
3 1362 1363 1270 
3 1270 1363 1361 
3 1364 1272 1271 
3 1271 1357 1364 
3 1364 1365 1272 
3 1272 1365 1273 
3 1362 1273 1365 
3 1309 1354 1274 
3 1278 1307 1277 
3 1366 1277 1367 
3 1307 1367 1277 
3 1366 1280 1277 
3 1279 1283 1284 
3 1280 1366 1368 
3 1280 1368 1281 
3 1368 1369 1281 
3 1281 1369 1282 
3 1370 1283 1282 
3 1282 1369 1371 
3 1371 1372 1282 
3 1372 1373 1282 
3 1374 1370 1282 
3 1282 1373 1374 
3 1284 1283 1370 
3 1375 1284 1370 
3 1376 1377 1284 
3 1284 1378 1285 
3 1284 1377 1378 
3 1376 1284 1375 
3 1285 1378 1292 
3 1286 1379 1380 
3 1286 1290 1379 
3 1380 1287 1286 
3 1287 1381 1288 
3 1287 1380 1382 
3 1383 1287 1382 
3 1287 1383 1381 
3 1288 1381 1289 
3 1384 1294 1289 
3 1289 1381 1384 
3 1385 1290 1291 
3 1379 1290 1386 
3 1290 1385 1386 
3 1291 1292 1378 
3 1291 1378 1385 
3 1387 1293 1295 
3 1293 1387 1328 
3 1384 1388 1294 
3 1294 1388 1296 
3 1389 1295 1301 
3 1389 1387 1295 
3 1296 1390 1297 
3 1296 1391 1392 
3 1392 1390 1296 
3 1393 1394 1296 
3 1394 1391 1296 
3 1393 1296 1388 
3 1297 1390 1298 
3 1298 1395 1396 
3 1298 1397 1398 
3 1398 1300 1298 
3 1298 1390 1395 
3 1397 1298 1396 
3 1399 1301 1299 
3 1299 1300 1399 
3 1300 1398 1399 
3 1301 1399 1400 
3 1401 1389 1301 
3 1301 1400 1401 
3 1304 1302 1303 
3 1402 1303 1403 
3 1402 1304 1303 
3 1303 1404 1403 
3 1358 1404 1303 
3 1306 1304 1405 
3 1405 1304 1402 
3 1406 1407 1305 
3 1406 1305 1306 
3 1307 1305 1407 
3 1405 1408 1306 
3 1406 1306 1409 
3 1410 1409 1306 
3 1306 1408 1410 
3 1407 1367 1307 
3 1309 1411 1354 
3 1411 1309 1310 
3 1310 1412 1413 
3 1310 1414 1415 
3 1416 1310 1415 
3 1413 1411 1310 
3 1416 1412 1310 
3 1311 1414 1310 
3 1312 1414 1311 
3 1314 1414 1312 
3 1313 1316 1415 
3 1415 1314 1313 
3 1414 1314 1415 
3 1316 1417 1415 
3 1417 1316 1327 
3 1338 1418 1317 
3 1419 1321 1317 
3 1318 1338 1317 
3 1419 1317 1418 
3 1319 1420 1326 
3 1420 1319 1320 
3 1421 1320 1321 
3 1420 1320 1421 
3 1321 1422 1421 
3 1422 1321 1419 
3 1327 1322 1323 
3 1423 1327 1323 
3 1323 1424 1423 
3 1323 1425 1426 
3 1426 1424 1323 
3 1427 1425 1323 
3 1427 1323 1325 
3 1428 1325 1324 
3 1324 1326 1428 
3 1429 1427 1325 
3 1429 1325 1428 
3 1420 1430 1326 
3 1428 1326 1430 
3 1327 1423 1431 
3 1327 1431 1417 
3 1328 1387 1432 
3 1329 1328 1432 
3 1432 1343 1329 
3 1331 1333 1330 
3 1330 1433 1434 
3 1330 1333 1433 
3 1434 1336 1330 
3 1332 1435 1334 
3 1436 1435 1332 
3 1332 1342 1436 
3 1335 1437 1333 
3 1333 1437 1438 
3 1333 1438 1439 
3 1433 1333 1439 
3 1440 1335 1334 
3 1435 1440 1334 
3 1437 1335 1440 
3 1336 1434 1339 
3 1338 1337 1418 
3 1337 1441 1418 
3 1340 1442 1337 
3 1441 1337 1442 
3 1341 1339 1443 
3 1443 1339 1434 
3 1340 1341 1444 
3 1442 1340 1444 
3 1341 1443 1445 
3 1444 1341 1445 
3 1436 1342 1345 
3 1343 1446 1344 
3 1432 1446 1343 
3 1446 1447 1344 
3 1344 1448 1352 
3 1448 1344 1447 
3 1436 1345 1449 
3 1348 1449 1345 
3 1450 1346 1347 
3 1451 1348 1346 
3 1346 1450 1451 
3 1452 1450 1347 
3 1347 1349 1351 
3 1452 1347 1351 
3 1453 1449 1348 
3 1451 1454 1348 
3 1454 1453 1348 
3 1350 1455 1351 
3 1352 1448 1350 
3 1455 1350 1456 
3 1350 1448 1456 
3 1351 1457 1452 
3 1351 1455 1457 
3 1355 1353 1411 
3 1354 1411 1353 
3 1411 1413 1355 
3 1356 1355 1413 
3 1458 1357 1356 
3 1459 1356 1413 
3 1356 1460 1458 
3 1459 1460 1356 
3 1357 1458 1364 
3 1358 1359 1404 
3 1359 1461 1404 
3 1361 1359 1360 
3 1363 1462 1359 
3 1359 1361 1363 
3 1359 1462 1461 
3 1363 1362 1463 
3 1464 1463 1362 
3 1362 1365 1464 
3 1465 1462 1363 
3 1363 1466 1465 
3 1463 1466 1363 
3 1365 1364 1467 
3 1467 1364 1468 
3 1468 1364 1458 
3 1469 1464 1365 
3 1365 1467 1426 
3 1470 1469 1365 
3 1365 1426 1470 
3 1366 1367 1406 
3 1366 1406 1409 
3 1471 1368 1366 
3 1471 1366 1409 
3 1407 1406 1367 
3 1471 1369 1368 
3 1369 1471 1371 
3 1375 1370 1472 
3 1370 1374 1472 
3 1371 1473 1474 
3 1473 1371 1471 
3 1371 1474 1372 
3 1372 1475 1373 
3 1372 1476 1477 
3 1474 1476 1372 
3 1372 1477 1475 
3 1373 1475 1478 
3 1374 1373 1478 
3 1472 1374 1479 
3 1480 1479 1374 
3 1374 1478 1480 
3 1375 1481 1376 
3 1482 1375 1472 
3 1481 1375 1482 
3 1483 1377 1376 
3 1376 1481 1483 
3 1378 1377 1483 
3 1483 1385 1378 
3 1484 1380 1379 
3 1379 1485 1484 
3 1379 1386 1485 
3 1486 1382 1380 
3 1380 1484 1486 
3 1381 1487 1384 
3 1487 1381 1488 
3 1488 1381 1383 
3 1486 1383 1382 
3 1383 1486 1392 
3 1383 1391 1488 
3 1392 1391 1383 
3 1384 1487 1388 
3 1386 1385 1483 
3 1483 1489 1386 
3 1386 1489 1485 
3 1389 1432 1387 
3 1388 1487 1393 
3 1447 1389 1401 
3 1447 1432 1389 
3 1390 1392 1490 
3 1390 1490 1395 
3 1488 1391 1394 
3 1491 1392 1486 
3 1490 1392 1491 
3 1393 1487 1394 
3 1487 1488 1394 
3 1492 1396 1395 
3 1395 1493 1494 
3 1490 1493 1395 
3 1492 1395 1494 
3 1495 1397 1396 
3 1396 1496 1497 
3 1396 1492 1496 
3 1396 1497 1495 
3 1498 1398 1397 
3 1495 1498 1397 
3 1399 1398 1498 
3 1399 1499 1400 
3 1499 1399 1498 
3 1499 1500 1400 
3 1400 1501 1401 
3 1501 1400 1500 
3 1447 1401 1501 
3 1403 1502 1402 
3 1503 1504 1402 
3 1402 1504 1405 
3 1502 1503 1402 
3 1403 1505 1502 
3 1403 1404 1506 
3 1403 1506 1505 
3 1461 1506 1404 
3 1408 1405 1504 
3 1507 1410 1408 
3 1508 1408 1504 
3 1408 1508 1507 
3 1409 1473 1471 
3 1509 1409 1510 
3 1410 1510 1409 
3 1409 1509 1473 
3 1410 1507 1511 
3 1511 1510 1410 
3 1413 1412 1459 
3 1460 1459 1412 
3 1460 1412 1416 
3 1415 1417 1416 
3 1460 1416 1468 
3 1468 1416 1431 
3 1417 1431 1416 
3 1512 1418 1513 
3 1418 1441 1513 
3 1514 1418 1512 
3 1514 1419 1418 
3 1419 1514 1515 
3 1422 1419 1515 
3 1516 1430 1420 
3 1421 1516 1420 
3 1516 1421 1422 
3 1428 1430 1422 
3 1515 1428 1422 
3 1422 1430 1516 
3 1431 1423 1468 
3 1423 1424 1468 
3 1468 1424 1467 
3 1426 1467 1424 
3 1425 1517 1469 
3 1469 1470 1425 
3 1470 1426 1425 
3 1517 1425 1518 
3 1518 1425 1427 
3 1518 1427 1429 
3 1429 1428 1519 
3 1519 1428 1520 
3 1520 1428 1515 
3 1519 1521 1429 
3 1521 1518 1429 
3 1432 1447 1446 
3 1433 1522 1434 
3 1433 1523 1522 
3 1439 1523 1433 
3 1434 1522 1443 
3 1524 1525 1435 
3 1525 1440 1435 
3 1435 1454 1524 
3 1436 1454 1435 
3 1449 1453 1436 
3 1453 1454 1436 
3 1526 1437 1440 
3 1438 1437 1526 
3 1526 1523 1438 
3 1438 1523 1439 
3 1527 1526 1440 
3 1527 1440 1525 
3 1442 1513 1441 
3 1442 1528 1513 
3 1529 1528 1442 
3 1529 1442 1444 
3 1443 1522 1530 
3 1530 1445 1443 
3 1444 1445 1531 
3 1444 1532 1533 
3 1533 1529 1444 
3 1444 1531 1532 
3 1531 1445 1534 
3 1530 1535 1445 
3 1445 1535 1536 
3 1445 1536 1537 
3 1445 1537 1534 
3 1448 1447 1501 
3 1456 1448 1538 
3 1501 1538 1448 
3 1539 1450 1452 
3 1450 1540 1541 
3 1541 1451 1450 
3 1531 1540 1450 
3 1531 1450 1539 
3 1454 1451 1542 
3 1541 1542 1451 
3 1543 1452 1457 
3 1539 1452 1544 
3 1544 1452 1543 
3 1454 1545 1524 
3 1454 1546 1545 
3 1454 1542 1546 
3 1547 1457 1455 
3 1455 1456 1538 
3 1455 1538 1548 
3 1548 1547 1455 
3 1543 1457 1547 
3 1468 1458 1460 
3 1549 1461 1462 
3 1461 1505 1506 
3 1461 1549 1550 
3 1461 1550 1551 
3 1551 1505 1461 
3 1549 1462 1465 
3 1466 1463 1552 
3 1552 1463 1553 
3 1554 1553 1463 
3 1464 1554 1463 
3 1517 1554 1464 
3 1464 1469 1517 
3 1549 1465 1552 
3 1552 1465 1466 
3 1479 1482 1472 
3 1555 1474 1473 
3 1509 1555 1473 
3 1474 1555 1476 
3 1475 1477 1556 
3 1556 1557 1475 
3 1475 1557 1478 
3 1558 1477 1476 
3 1476 1555 1558 
3 1559 1477 1558 
3 1559 1556 1477 
3 1557 1560 1478 
3 1560 1480 1478 
3 1479 1561 1482 
3 1561 1479 1562 
3 1563 1564 1479 
3 1479 1480 1563 
3 1479 1564 1565 
3 1565 1562 1479 
3 1560 1563 1480 
3 1566 1481 1567 
3 1481 1561 1567 
3 1561 1481 1482 
3 1483 1481 1566 
3 1489 1483 1566 
3 1484 1485 1568 
3 1484 1568 1569 
3 1484 1569 1486 
3 1568 1485 1489 
3 1486 1569 1570 
3 1486 1570 1571 
3 1486 1571 1491 
3 1566 1572 1489 
3 1568 1489 1572 
3 1490 1571 1573 
3 1573 1493 1490 
3 1490 1491 1571 
3 1494 1574 1492 
3 1496 1492 1574 
3 1493 1575 1494 
3 1493 1573 1575 
3 1576 1494 1575 
3 1494 1576 1574 
3 1577 1495 1497 
3 1578 1498 1495 
3 1578 1495 1577 
3 1579 1497 1496 
3 1496 1574 1580 
3 1580 1581 1496 
3 1496 1581 1582 
3 1582 1579 1496 
3 1497 1583 1577 
3 1583 1497 1579 
3 1499 1498 1578 
3 1578 1584 1499 
3 1585 1548 1499 
3 1586 1585 1499 
3 1548 1500 1499 
3 1586 1499 1584 
3 1538 1501 1500 
3 1538 1500 1548 
3 1505 1587 1502 
3 1503 1502 1588 
3 1589 1588 1502 
3 1587 1589 1502 
3 1590 1504 1503 
3 1588 1590 1503 
3 1504 1591 1508 
3 1591 1504 1592 
3 1504 1590 1593 
3 1593 1592 1504 
3 1551 1587 1505 
3 1507 1594 1511 
3 1508 1591 1507 
3 1591 1594 1507 
3 1509 1510 1595 
3 1595 1555 1509 
3 1596 1595 1510 
3 1510 1511 1596 
3 1597 1596 1511 
3 1597 1511 1594 
3 1598 1512 1513 
3 1599 1600 1512 
3 1600 1601 1512 
3 1512 1598 1599 
3 1601 1514 1512 
3 1602 1513 1528 
3 1513 1602 1598 
3 1514 1603 1604 
3 1604 1515 1514 
3 1514 1605 1603 
3 1605 1514 1601 
3 1606 1515 1604 
3 1515 1606 1607 
3 1515 1608 1520 
3 1609 1515 1607 
3 1608 1515 1609 
3 1610 1554 1517 
3 1611 1517 1518 
3 1611 1610 1517 
3 1518 1612 1611 
3 1612 1518 1521 
3 1519 1613 1521 
3 1614 1519 1615 
3 1520 1615 1519 
3 1613 1519 1614 
3 1608 1615 1520 
3 1616 1521 1617 
3 1521 1616 1612 
3 1617 1521 1613 
3 1522 1523 1530 
3 1526 1535 1523 
3 1530 1523 1535 
3 1618 1525 1524 
3 1618 1524 1545 
3 1527 1525 1618 
3 1619 1535 1526 
3 1619 1526 1527 
3 1545 1527 1618 
3 1527 1545 1619 
3 1528 1529 1620 
3 1620 1602 1528 
3 1620 1529 1621 
3 1529 1533 1621 
3 1534 1540 1531 
3 1531 1622 1623 
3 1539 1624 1531 
3 1531 1624 1622 
3 1623 1532 1531 
3 1532 1625 1533 
3 1621 1532 1623 
3 1532 1621 1625 
3 1533 1625 1621 
3 1534 1537 1536 
3 1626 1534 1536 
3 1534 1626 1540 
3 1619 1536 1535 
3 1536 1546 1626 
3 1545 1536 1619 
3 1546 1536 1545 
3 1539 1627 1628 
3 1628 1624 1539 
3 1544 1627 1539 
3 1540 1626 1541 
3 1626 1542 1541 
3 1626 1546 1542 
3 1543 1547 1544 
3 1544 1547 1629 
3 1630 1627 1544 
3 1631 1632 1544 
3 1630 1544 1632 
3 1544 1629 1631 
3 1585 1629 1547 
3 1547 1548 1585 
3 1550 1549 1633 
3 1552 1633 1549 
3 1634 1551 1550 
3 1633 1634 1550 
3 1551 1634 1589 
3 1589 1587 1551 
3 1635 1633 1552 
3 1552 1636 1635 
3 1636 1552 1553 
3 1553 1637 1636 
3 1637 1553 1554 
3 1554 1610 1637 
3 1558 1555 1595 
3 1638 1639 1556 
3 1640 1556 1639 
3 1556 1559 1638 
3 1556 1640 1557 
3 1557 1640 1560 
3 1558 1595 1641 
3 1641 1559 1558 
3 1638 1559 1641 
3 1563 1560 1640 
3 1567 1561 1642 
3 1562 1642 1561 
3 1643 1644 1562 
3 1565 1643 1562 
3 1642 1562 1644 
3 1645 1564 1563 
3 1563 1640 1646 
3 1563 1646 1647 
3 1647 1645 1563 
3 1564 1645 1565 
3 1645 1648 1565 
3 1649 1643 1565 
3 1565 1648 1649 
3 1566 1567 1572 
3 1567 1642 1644 
3 1572 1567 1650 
3 1567 1644 1650 
3 1568 1651 1652 
3 1568 1572 1651 
3 1652 1569 1568 
3 1570 1569 1653 
3 1652 1653 1569 
3 1654 1570 1653 
3 1570 1654 1655 
3 1571 1570 1655 
3 1656 1573 1571 
3 1655 1656 1571 
3 1651 1572 1650 
3 1656 1575 1573 
3 1574 1657 1658 
3 1574 1576 1657 
3 1574 1659 1580 
3 1574 1658 1659 
3 1660 1576 1575 
3 1660 1575 1656 
3 1661 1576 1660 
3 1576 1661 1657 
3 1577 1584 1578 
3 1577 1583 1584 
3 1579 1662 1663 
3 1579 1582 1662 
3 1663 1583 1579 
3 1664 1580 1659 
3 1664 1665 1580 
3 1666 1581 1580 
3 1580 1665 1666 
3 1582 1581 1666 
3 1667 1582 1666 
3 1662 1582 1667 
3 1668 1584 1583 
3 1583 1669 1668 
3 1663 1669 1583 
3 1670 1671 1584 
3 1584 1671 1586 
3 1584 1668 1670 
3 1629 1585 1672 
3 1672 1585 1586 
3 1586 1671 1672 
3 1673 1590 1588 
3 1588 1589 1673 
3 1634 1673 1589 
3 1674 1590 1673 
3 1590 1674 1593 
3 1675 1591 1592 
3 1597 1594 1591 
3 1597 1591 1675 
3 1676 1675 1592 
3 1676 1592 1593 
3 1676 1593 1674 
3 1641 1595 1596 
3 1677 1596 1597 
3 1641 1596 1677 
3 1597 1675 1678 
3 1678 1677 1597 
3 1599 1598 1679 
3 1680 1679 1598 
3 1598 1681 1680 
3 1681 1598 1602 
3 1599 1682 1600 
3 1683 1684 1599 
3 1599 1684 1682 
3 1679 1683 1599 
3 1601 1600 1682 
3 1682 1605 1601 
3 1602 1620 1685 
3 1686 1602 1685 
3 1602 1686 1681 
3 1604 1603 1687 
3 1603 1605 1687 
3 1604 1687 1606 
3 1687 1605 1684 
3 1684 1605 1682 
3 1684 1606 1687 
3 1683 1606 1684 
3 1607 1606 1683 
3 1683 1688 1607 
3 1689 1609 1607 
3 1690 1691 1607 
3 1607 1688 1692 
3 1607 1692 1690 
3 1693 1689 1607 
3 1693 1607 1691 
3 1615 1608 1614 
3 1694 1614 1608 
3 1608 1609 1694 
3 1689 1694 1609 
3 1695 1637 1610 
3 1695 1610 1696 
3 1610 1697 1696 
3 1611 1697 1610 
3 1697 1611 1612 
3 1612 1616 1697 
3 1698 1617 1613 
3 1699 1700 1613 
3 1700 1698 1613 
3 1699 1613 1614 
3 1694 1699 1614 
3 1616 1617 1701 
3 1701 1702 1616 
3 1702 1703 1616 
3 1616 1703 1697 
3 1617 1698 1701 
3 1685 1620 1704 
3 1704 1620 1621 
3 1621 1623 1704 
3 1622 1704 1623 
3 1622 1705 1706 
3 1622 1706 1704 
3 1624 1705 1622 
3 1705 1624 1628 
3 1628 1627 1707 
3 1707 1627 1630 
3 1708 1705 1628 
3 1628 1709 1708 
3 1707 1709 1628 
3 1631 1629 1672 
3 1710 1630 1632 
3 1630 1710 1707 
3 1632 1631 1711 
3 1711 1631 1672 
3 1711 1710 1632 
3 1634 1633 1712 
3 1633 1713 1714 
3 1633 1635 1713 
3 1633 1714 1712 
3 1712 1673 1634 
3 1635 1636 1715 
3 1715 1713 1635 
3 1715 1636 1716 
3 1716 1636 1717 
3 1695 1636 1637 
3 1717 1636 1695 
3 1638 1718 1639 
3 1638 1677 1718 
3 1677 1638 1641 
3 1719 1720 1639 
3 1639 1718 1719 
3 1646 1639 1720 
3 1646 1640 1639 
3 1644 1643 1649 
3 1644 1721 1650 
3 1649 1721 1644 
3 1647 1648 1645 
3 1722 1646 1720 
3 1646 1722 1647 
3 1723 1648 1647 
3 1647 1722 1724 
3 1647 1724 1723 
3 1725 1649 1648 
3 1648 1723 1725 
3 1649 1726 1727 
3 1727 1721 1649 
3 1649 1725 1728 
3 1729 1649 1728 
3 1730 1649 1729 
3 1726 1649 1730 
3 1650 1721 1651 
3 1651 1653 1652 
3 1651 1721 1731 
3 1731 1653 1651 
3 1731 1654 1653 
3 1655 1654 1660 
3 1654 1731 1660 
3 1656 1655 1660 
3 1658 1657 1732 
3 1657 1661 1732 
3 1732 1659 1658 
3 1659 1733 1734 
3 1734 1664 1659 
3 1659 1732 1733 
3 1735 1736 1660 
3 1737 1735 1660 
3 1660 1731 1737 
3 1660 1736 1661 
3 1732 1661 1738 
3 1738 1661 1736 
3 1662 1739 1663 
3 1740 1739 1662 
3 1741 1662 1667 
3 1740 1662 1741 
3 1670 1669 1663 
3 1739 1670 1663 
3 1742 1743 1664 
3 1664 1734 1742 
3 1665 1664 1743 
3 1744 1665 1743 
3 1665 1744 1667 
3 1666 1665 1667 
3 1667 1744 1741 
3 1668 1669 1670 
3 1745 1671 1670 
3 1745 1670 1739 
3 1745 1672 1671 
3 1672 1745 1711 
3 1712 1674 1673 
3 1674 1712 1746 
3 1674 1746 1676 
3 1675 1676 1747 
3 1747 1678 1675 
3 1747 1676 1746 
3 1748 1677 1678 
3 1748 1718 1677 
3 1749 1678 1747 
3 1748 1678 1749 
3 1683 1679 1688 
3 1688 1679 1680 
3 1692 1680 1750 
3 1692 1688 1680 
3 1750 1680 1681 
3 1750 1681 1686 
3 1685 1751 1686 
3 1752 1751 1685 
3 1753 1752 1685 
3 1685 1704 1753 
3 1754 1750 1686 
3 1686 1751 1754 
3 1694 1689 1755 
3 1693 1756 1689 
3 1757 1755 1689 
3 1756 1757 1689 
3 1691 1690 1758 
3 1758 1690 1750 
3 1750 1690 1692 
3 1759 1691 1760 
3 1759 1693 1691 
3 1760 1691 1761 
3 1691 1758 1761 
3 1693 1762 1756 
3 1762 1693 1759 
3 1755 1699 1694 
3 1695 1696 1717 
3 1763 1717 1696 
3 1764 1696 1702 
