NORM_ASCII
4113 8222
   0.0132740   -0.2796092    0.0725644    0.6008974    0.1861909    0.7773386
   0.0133810   -0.2786764    0.0721365    0.5633115    0.3370930    0.7543530
   0.0135765   -0.2787071    0.0719974    0.6982554    0.2287790    0.6783063
   0.0140203   -0.2781510    0.0711707    0.8446343    0.3614945    0.3948603
   0.0139291   -0.2777474    0.0709123    0.7928070    0.5325233    0.2964389
   0.0141025   -0.2779049    0.0705917    0.9185728    0.3701287    0.1386676
   0.0135531   -0.2785342    0.0719271    0.5972711    0.3857008    0.7032084
   0.0136266   -0.2777819    0.0714261    0.6119672    0.4790773    0.6292703
   0.0138017   -0.2778036    0.0712328    0.7230595    0.4924672    0.4844181
   0.0141270   -0.2779329    0.0703229    0.9471361    0.3199528   -0.0237345
   0.0133657   -0.2791485    0.0723239    0.6205795    0.2485079    0.7437237
   0.0132275   -0.2791276    0.0724147    0.4530681    0.3475444    0.8209398
   0.0130918   -0.2779120    0.0668493    0.7128924   -0.3096626   -0.6292007
   0.0129897   -0.2776948    0.0666125    0.7966369   -0.1086915   -0.5946056
   0.0128361   -0.2777000    0.0664177    0.7927957   -0.1999489   -0.5757564
   0.0132759   -0.2776832    0.0670108    0.8605005    0.0222120   -0.5089652
   0.0131434   -0.2776898    0.0668073    0.7950527   -0.1113849   -0.5962253
   0.0126767   -0.2777045    0.0662253    0.7605883   -0.2157897   -0.6123236
   0.0136559   -0.2772711    0.0688985    0.7313968    0.6803698   -0.0464293
   0.0138231   -0.2774308    0.0701462    0.7425242    0.6694377    0.0226069
   0.0137027   -0.2772903    0.0696630    0.6571593    0.7536582    0.0118750
   0.0139681   -0.2776315    0.0703634    0.8085506    0.5817028    0.0887004
   0.0134800   -0.2771445    0.0684405    0.6509546    0.7579948   -0.0412564
   0.0133926   -0.2770700    0.0682098    0.6861394    0.7274486   -0.0055838
   0.0131729   -0.2772286    0.0670135    0.8709760    0.2538018   -0.4206963
   0.0133756   -0.2771333    0.0677013    0.7872707    0.5724565   -0.2291251
   0.0132454   -0.2771670    0.0672377    0.8344961    0.4474308   -0.3215929
   0.0133042   -0.2769757    0.0679784    0.6961040    0.7127070   -0.0865331
   0.0125241   -0.2775065    0.0660114    0.6743891   -0.2131268   -0.7069486
   0.0120846   -0.2767271    0.0656066    0.6685324    0.3282986   -0.6672964
   0.0122714   -0.2767266    0.0657877    0.6898138    0.2773220   -0.6687671
   0.0125702   -0.2772278    0.0659664    0.7108503   -0.0558506   -0.7011223
   0.0125189   -0.2770132    0.0659692    0.7264852    0.2289060   -0.6479362
   0.0124414   -0.2767239    0.0659757    0.7215448    0.3326325   -0.6072304
   0.0119097   -0.2764115    0.0656528    0.5996317    0.5768784   -0.5546649
   0.0106122   -0.2755685    0.0661306    0.2665600    0.9602527    0.0828285
   0.0105729   -0.2756893    0.0666803    0.1896466    0.9592639    0.2093964
   0.0120827   -0.2762780    0.0660885    0.5205561    0.7866429   -0.3319854
   0.0115628   -0.2759814    0.0660227    0.4718900    0.8662418   -0.1641491
   0.0114342   -0.2759016    0.0663317    0.4157605    0.9074947    0.0599712
   0.0112510   -0.2760117    0.0671538    0.3503466    0.9167857    0.1917323
   0.0109637   -0.2758804    0.0670526    0.3161235    0.9208838    0.2281206
   0.0085104   -0.2756454    0.0678187   -0.0193068    0.9949659    0.0983362
   0.0099358   -0.2758660    0.0682734    0.2325001    0.9514711    0.2016095
   0.0089885   -0.2757458    0.0684061    0.1000860    0.9881415    0.1164437
   0.0109332   -0.2762260    0.0689233    0.2585065    0.9550859    0.1448631
   0.0095533   -0.2758979    0.0692225    0.2297881    0.9716103    0.0563110
   0.0096008   -0.2759490    0.0699894    0.2098574    0.9726985    0.0990831
   0.0089556   -0.2758585    0.0702568    0.1277469    0.9808028    0.1473313
   0.0125100   -0.2775396    0.0717607    0.2064095    0.6366209    0.7430404
   0.0132191   -0.2777234    0.0716623    0.4089334    0.5538814    0.7252509
   0.0125452   -0.2769852    0.0711735    0.2513851    0.8052446    0.5370165
   0.0131673   -0.2772720    0.0711945    0.4324929    0.7640116    0.4787861
   0.0127602   -0.2770006    0.0710830    0.3284143    0.8299087    0.4509941
   0.0109890   -0.2764493    0.0710073    0.1988323    0.9319273    0.3032774
   0.0119919   -0.2767065    0.0708628    0.2615904    0.9187999    0.2955964
   0.0119774   -0.2765658    0.0703344    0.2831709    0.9482362    0.1437439
   0.0109400   -0.2762898    0.0702310    0.2036485    0.9735253    0.1038066
   0.0104224   -0.2761683    0.0701800    0.2314502    0.9702738    0.0707070
   0.0135852   -0.2776242    0.0713090    0.5760802    0.6599358    0.4823031
   0.0136227   -0.2773677    0.0707479    0.6325804    0.7154586    0.2965823
   0.0134293   -0.2777522    0.0715598    0.4664572    0.5708800    0.6756580
   0.0130859   -0.2773308    0.0667994    0.8411637    0.1545477   -0.5182265
   0.0129620   -0.2772034    0.0665799    0.8729361    0.1923931   -0.4482939
   0.0130641   -0.2771929    0.0667960    0.8603519    0.2892075   -0.4197066
   0.0128545   -0.2772152    0.0663656    0.8625810    0.1041166   -0.4950897
   0.0127323   -0.2772237    0.0661580    0.8088893    0.0758731   -0.5830449
   0.0134400   -0.2771121    0.0689761    0.5285884    0.8488736   -0.0027947
   0.0135347   -0.2772032    0.0705094    0.5701903    0.7976435    0.1965905
   0.0132707   -0.2770284    0.0698239    0.4709217    0.8820987    0.0116053
   0.0132607   -0.2770193    0.0687836    0.4570476    0.8886088    0.0384956
   0.0130881   -0.2768238    0.0680567    0.5050855    0.8625790    0.0290891
   0.0131595   -0.2771800    0.0670149    0.8457756    0.3891144   -0.3650393
   0.0129545   -0.2768764    0.0670750    0.6884245    0.6974869   -0.1989565
   0.0122133   -0.2766120    0.0658021    0.6166389    0.5141620   -0.5961493
   0.0126043   -0.2768030    0.0661745    0.8083248    0.3548598   -0.4697718
   0.0125683   -0.2767145    0.0661817    0.7816471    0.4328130   -0.4491110
   0.0122990   -0.2764807    0.0660149    0.6333042    0.5986743   -0.4904232
   0.0123861   -0.2764343    0.0662342    0.6623241    0.6972512   -0.2741671
   0.0121702   -0.2762799    0.0663121    0.4833796    0.8740809   -0.0482366
   0.0119542   -0.2761767    0.0663951    0.4421555    0.8961593    0.0373771
   0.0122181   -0.2763983    0.0670853    0.4265711    0.8981489    0.1066103
   0.0112674   -0.2760251    0.0671968    0.5164779    0.8447804    0.1399883
   0.0110523   -0.2759816    0.0672847    0.8082431    0.5689727    0.1517008
   0.0108370   -0.2759293    0.0673720    0.5381458    0.7989319    0.2685274
   0.0109248   -0.2760288    0.0676047    0.4109870    0.8915892    0.1901534
   0.0108524   -0.2759513    0.0674135    0.3386078    0.8949981    0.2903844
   0.0117064   -0.2763484    0.0683432    0.2608804    0.9493142    0.1753396
   0.0124408   -0.2765861    0.0683118    0.3379677    0.9371623    0.0866291
   0.0112158   -0.2763227    0.0690102    0.2433162    0.9617361    0.1259398
   0.0116672   -0.2764201    0.0688881    0.2288206    0.9715419    0.0612161
   0.0110210   -0.2762909    0.0691529    0.7930877    0.6035149    0.0823506
   0.0108055   -0.2762407    0.0692404    0.4450274    0.8885085    0.1118181
   0.0104911   -0.2761897    0.0697152    0.2568836    0.9658025    0.0351620
   0.0124568   -0.2768604    0.0709388    0.2460127    0.9135250    0.3239596
   0.0126721   -0.2768897    0.0708496    0.3615803    0.8892631    0.2801265
   0.0114991   -0.2763912    0.0697402    0.2592136    0.9646766    0.0469828
   0.0130148   -0.2769045    0.0704435    0.3892262    0.9117915    0.1309172
   0.0108934   -0.2762798    0.0694672    0.3525166    0.9354750    0.0248709
   0.0127794   -0.2768047    0.0666212    0.8044973    0.5337423   -0.2605825
   0.0126918   -0.2767770    0.0663953    0.8264729    0.4716912   -0.3073271
   0.0128664   -0.2768446    0.0668491    0.7505017    0.6298910   -0.1999612
   0.0127378   -0.2766947    0.0671510    0.5694457    0.8216315   -0.0255582
   0.0126463   -0.2767001    0.0664080    0.8059669    0.5346690   -0.2540601
   0.0124733   -0.2764622    0.0664604    0.6516791    0.7562573   -0.0582173
   0.0113550   -0.2760898    0.0674263    0.3018581    0.9417624    0.1482069
   0.0123058   -0.2764561    0.0673140    0.4316106    0.9000270    0.0605276
   0.0110523   -0.2759816    0.0672847    0.7883948    0.5996305    0.1373932
   0.0110523   -0.2759816    0.0672847    0.8883905    0.4359908    0.1437853
   0.0111405   -0.2760623    0.0675152    0.2232240    0.9511523    0.2132611
   0.0112368   -0.2763311    0.0690639    0.4248898    0.9044506    0.0379176
   0.0113238   -0.2763522    0.0692898    0.1909791    0.9814218    0.0183898
   0.0110210   -0.2762909    0.0691529    0.7695277    0.6382825    0.0205574
   0.0110210   -0.2762909    0.0691529    0.8742173    0.4835847    0.0434731
   0.0108342   -0.2762581    0.0693149    0.2604774    0.9621673    0.0799096
   0.0111088   -0.2763158    0.0693782    0.1772041    0.9837697    0.0282120
   0.0126774   -0.2766793    0.0666537    0.7614002    0.6339922   -0.1353648
3 0 1 2 
3 3 0 2 
3 4 1 0 
3 4 0 3 
3 1 5 2 
3 4 5 1 
3 6 3 2 
3 2 7 8 
3 2 5 9 
3 2 10 6 
3 2 11 12 
3 9 7 2 
3 2 8 13 
3 2 14 10 
3 11 2 13 
3 14 2 12 
3 15 16 3 
3 16 17 3 
3 15 3 6 
3 4 3 17 
3 4 18 5 
3 4 19 18 
3 4 20 21 
3 17 20 4 
3 21 19 4 
3 18 22 5 
3 5 22 9 
3 6 23 15 
3 24 23 6 
3 10 24 6 
3 7 25 8 
3 26 25 7 
3 7 9 26 
3 8 25 27 
3 8 27 28 
3 28 13 8 
3 9 22 29 
3 29 26 9 
3 10 30 31 
3 31 24 10 
3 32 30 10 
3 10 14 32 
3 33 12 11 
3 11 34 33 
3 34 11 13 
3 14 12 35 
3 33 35 12 
3 36 13 28 
3 13 36 34 
3 14 37 38 
3 38 32 14 
3 37 14 35 
3 15 23 16 
3 39 17 16 
3 23 39 16 
3 20 17 39 
3 40 22 18 
3 40 18 41 
3 19 41 18 
3 42 41 19 
3 21 43 19 
3 42 19 43 
3 20 44 21 
3 45 44 20 
3 45 20 46 
3 46 20 39 
3 47 21 44 
3 21 47 48 
3 48 43 21 
3 29 22 49 
3 40 49 22 
3 39 23 50 
3 50 23 24 
3 50 24 31 
3 26 29 25 
3 25 29 51 
3 25 51 52 
3 27 25 52 
3 52 53 27 
3 53 54 27 
3 55 27 54 
3 27 55 28 
3 36 28 56 
3 28 55 57 
3 56 28 57 
3 49 58 29 
3 58 51 29 
3 31 30 59 
3 30 60 59 
3 60 30 32 
3 31 59 61 
3 61 50 31 
3 60 32 38 
3 35 33 62 
3 63 64 33 
3 33 65 63 
3 33 64 66 
3 66 62 33 
3 65 33 34 
3 56 34 36 
3 34 56 65 
3 62 37 35 
3 67 38 37 
3 67 37 68 
3 37 62 69 
3 69 68 37 
3 70 38 67 
3 38 70 60 
3 50 46 39 
3 40 71 49 
3 40 72 73 
3 73 74 40 
3 40 74 71 
3 75 40 41 
3 76 40 75 
3 72 40 76 
3 42 75 41 
3 42 76 75 
3 77 76 42 
3 42 43 77 
3 43 78 79 
3 78 43 48 
3 79 77 43 
3 45 47 44 
3 46 61 45 
3 61 80 45 
3 47 45 80 
3 46 50 61 
3 47 81 48 
3 47 82 81 
3 80 82 47 
3 83 48 81 
3 78 48 83 
3 49 71 84 
3 84 85 49 
3 58 49 85 
3 58 86 51 
3 52 51 86 
3 87 52 86 
3 52 88 89 
3 52 87 88 
3 89 53 52 
3 53 89 90 
3 53 90 91 
3 54 53 91 
3 91 92 54 
3 57 54 92 
3 54 57 55 
3 93 56 57 
3 65 56 93 
3 94 57 95 
3 57 92 96 
3 96 95 57 
3 57 94 93 
3 97 86 58 
3 58 98 99 
3 58 100 97 
3 85 98 58 
3 99 100 58 
3 61 59 101 
3 102 103 59 
3 103 101 59 
3 104 59 60 
3 105 102 59 
3 59 104 105 
3 104 60 70 
3 101 106 61 
3 106 80 61 
3 66 107 62 
3 108 62 109 
3 107 109 62 
3 62 108 69 
3 64 63 110 
3 65 111 63 
3 110 63 111 
3 66 64 110 
3 93 111 65 
3 112 113 66 
3 114 112 66 
3 66 110 114 
3 66 113 115 
3 66 115 116 
3 117 107 66 
3 116 117 66 
3 70 67 68 
3 68 118 70 
3 118 68 69 
3 69 108 118 
3 118 119 70 
3 120 104 70 
3 120 70 119 
3 71 74 84 
3 72 121 73 
3 122 123 72 
3 124 72 76 
3 122 72 124 
3 72 123 121 
3 84 74 73 
3 85 84 73 
3 73 121 85 
3 76 125 126 
3 76 126 124 
3 125 76 77 
3 77 127 125 
3 128 127 77 
3 79 128 77 
3 78 129 79 
3 78 83 129 
3 129 128 79 
3 82 80 106 
3 130 81 82 
3 81 131 83 
3 130 131 81 
3 106 132 82 
3 82 132 130 
3 83 133 129 
3 131 133 83 
3 85 134 98 
3 85 121 134 
3 97 135 86 
3 86 135 87 
3 136 87 137 
3 87 135 137 
3 88 87 136 
3 89 88 90 
3 138 88 136 
3 90 88 138 
3 138 139 90 
3 91 90 140 
3 139 140 90 
3 91 140 92 
3 92 140 96 
3 111 93 94 
3 95 141 94 
3 94 141 142 
3 143 94 142 
3 94 143 144 
3 111 94 144 
3 96 139 95 
3 145 95 139 
3 141 95 145 
3 96 140 139 
3 135 97 146 
3 146 97 100 
3 134 99 98 
3 123 100 99 
3 134 123 99 
3 146 100 147 
3 147 100 123 
3 101 148 149 
3 149 106 101 
3 148 101 103 
3 103 102 150 
3 151 150 102 
3 151 102 152 
3 102 105 152 
3 103 153 148 
3 153 103 150 
3 120 105 104 
3 152 105 120 
3 154 132 106 
3 106 149 154 
3 107 155 109 
3 117 155 107 
3 108 109 156 
3 157 158 108 
3 108 156 157 
3 108 159 118 
3 108 158 159 
3 156 109 160 
3 109 155 160 
3 111 161 110 
3 161 114 110 
3 144 161 111 
3 112 162 113 
3 162 112 163 
3 164 112 114 
3 112 164 163 
3 165 115 113 
3 165 113 162 
3 114 161 164 
3 166 116 115 
3 166 115 165 
3 117 116 167 
3 168 116 166 
3 167 116 168 
3 117 160 155 
3 169 117 170 
3 160 117 169 
3 170 117 167 
3 118 171 119 
3 118 159 171 
3 172 173 119 
3 174 175 119 
3 119 175 172 
3 176 174 119 
3 173 120 119 
3 171 176 119 
3 152 120 173 
3 121 123 134 
3 123 122 177 
3 178 177 122 
3 179 122 180 
3 179 178 122 
3 122 124 181 
3 180 122 181 
3 182 183 123 
3 183 147 123 
3 123 177 182 
3 126 181 124 
3 184 126 125 
3 125 185 184 
3 186 185 125 
3 186 125 127 
3 181 126 184 
3 128 187 127 
3 127 187 188 
3 188 189 127 
3 186 127 189 
3 187 128 129 
3 190 129 133 
3 129 190 187 
3 132 191 130 
3 191 192 130 
3 193 131 130 
3 192 193 130 
3 193 194 131 
3 133 131 194 
3 191 132 154 
3 190 133 194 
3 146 137 135 
3 137 195 136 
3 136 195 196 
3 136 196 138 
3 197 137 146 
3 195 137 198 
3 197 198 137 
3 199 200 138 
3 201 138 200 
3 138 196 199 
3 139 138 201 
3 139 201 202 
3 203 145 139 
3 139 202 203 
3 145 204 141 
3 142 141 204 
3 142 205 143 
3 142 206 205 
3 204 207 142 
3 207 206 142 
3 208 144 143 
3 143 209 208 
3 209 143 205 
3 144 208 210 
3 210 211 144 
3 164 144 211 
3 164 161 144 
3 203 212 145 
3 213 145 214 
3 145 212 214 
3 204 145 213 
3 147 215 146 
3 146 215 216 
3 217 197 146 
3 146 218 217 
3 216 218 146 
3 219 147 183 
3 147 219 215 
3 148 220 149 
3 153 220 148 
3 154 149 220 
3 221 150 151 
3 221 153 150 
3 221 151 222 
3 152 223 151 
3 222 151 223 
3 152 173 224 
3 152 224 225 
3 225 223 152 
3 226 220 153 
3 226 153 221 
3 154 220 191 
3 160 227 156 
3 156 228 157 
3 228 156 227 
3 229 158 157 
3 157 228 229 
3 159 158 229 
3 159 229 230 
3 231 171 159 
3 230 231 159 
3 169 227 160 
3 163 232 162 
3 162 232 233 
3 165 162 233 
3 211 232 163 
3 211 163 164 
3 166 165 234 
3 165 233 234 
3 235 166 236 
3 234 236 166 
3 166 235 237 
3 238 166 237 
3 238 168 166 
3 167 239 170 
3 168 239 167 
3 168 240 239 
3 241 242 168 
3 242 240 168 
3 168 238 241 
3 169 170 243 
3 243 227 169 
3 244 243 170 
3 244 170 239 
3 245 176 171 
3 171 246 245 
3 231 246 171 
3 173 172 247 
3 172 175 248 
3 172 248 249 
3 249 247 172 
3 247 224 173 
3 248 175 174 
3 174 176 250 
3 250 251 174 
3 252 248 174 
3 252 174 251 
3 250 176 245 
3 177 253 182 
3 254 177 178 
3 254 255 177 
3 177 255 253 
3 256 178 257 
3 258 259 178 
3 256 254 178 
3 178 179 260 
3 178 260 258 
3 178 259 257 
3 180 260 179 
3 260 180 261 
3 181 261 180 
3 262 261 181 
3 262 181 184 
3 253 183 182 
3 253 219 183 
3 263 184 264 
3 265 266 184 
3 267 184 185 
3 264 184 267 
3 184 263 265 
3 184 266 262 
3 186 267 185 
3 264 186 268 
3 186 264 267 
3 189 269 186 
3 269 268 186 
3 190 188 187 
3 188 270 271 
3 188 272 273 
3 273 270 188 
3 272 188 190 
3 189 188 271 
3 269 189 271 
3 194 272 190 
3 220 274 191 
3 274 192 191 
3 274 193 192 
3 275 193 274 
3 194 193 275 
3 194 276 277 
3 277 272 194 
3 194 275 278 
3 279 276 194 
3 194 278 279 
3 196 195 198 
3 280 196 198 
3 281 196 280 
3 281 199 196 
3 282 197 217 
3 197 282 280 
3 198 197 280 
3 199 281 200 
3 283 200 281 
3 200 283 284 
3 201 200 284 
3 201 284 285 
3 285 202 201 
3 286 203 202 
3 286 202 285 
3 286 287 203 
3 287 212 203 
3 213 207 204 
3 205 206 288 
3 205 288 209 
3 288 206 207 
3 289 207 213 
3 207 289 288 
3 209 290 208 
3 208 290 291 
3 208 291 210 
3 209 288 292 
3 290 209 292 
3 211 210 291 
3 291 293 211 
3 293 294 211 
3 211 294 232 
3 214 212 287 
3 214 295 213 
3 213 295 296 
3 296 289 213 
3 287 295 214 
3 297 216 215 
3 219 297 215 
3 298 218 216 
3 216 256 299 
3 216 297 256 
3 216 299 298 
3 298 217 218 
3 282 217 298 
3 255 297 219 
3 253 255 219 
3 220 226 274 
3 226 221 300 
3 300 221 222 
3 300 222 223 
3 300 223 301 
3 301 223 225 
3 225 224 302 
3 303 224 247 
3 302 224 303 
3 301 225 302 
3 274 226 300 
3 243 228 227 
3 228 304 229 
3 304 228 243 
3 229 304 305 
3 230 229 305 
3 305 306 230 
3 306 231 230 
3 307 231 306 
3 246 231 307 
3 308 232 294 
3 233 232 309 
3 309 232 308 
3 310 233 309 
3 234 233 310 
3 234 310 236 
3 236 311 235 
3 312 237 235 
3 311 313 235 
3 235 313 312 
3 309 236 310 
3 309 314 236 
3 236 314 315 
3 311 236 315 
3 237 241 238 
3 316 241 237 
3 237 312 317 
3 317 316 237 
3 244 239 240 
3 240 242 318 
3 319 320 240 
3 318 321 240 
3 240 321 322 
3 319 240 323 
3 240 320 324 
3 324 244 240 
3 325 323 240 
3 240 322 325 
3 242 241 316 
3 326 318 242 
3 316 326 242 
3 304 243 324 
3 324 243 244 
3 251 250 245 
3 245 246 251 
3 251 246 307 
3 249 327 247 
3 327 303 247 
3 328 329 248 
3 249 248 329 
3 248 252 328 
3 330 249 329 
3 330 327 249 
3 307 328 251 
3 251 328 252 
3 254 256 255 
3 255 256 297 
3 256 257 331 
3 331 299 256 
3 331 257 259 
3 258 332 259 
3 258 260 333 
3 333 334 258 
3 335 332 258 
3 335 258 334 
3 259 336 331 
3 337 259 332 
3 338 339 259 
3 339 336 259 
3 338 259 337 
3 261 262 260 
3 333 260 266 
3 262 266 260 
3 340 263 264 
3 340 341 263 
3 263 342 265 
3 263 341 342 
3 343 264 268 
3 344 264 343 
3 344 340 264 
3 265 333 266 
3 333 265 342 
3 268 269 343 
3 271 345 269 
3 269 345 343 
3 271 270 346 
3 346 270 273 
3 277 276 271 
3 277 271 346 
3 347 345 271 
3 347 271 276 
3 273 272 277 
3 346 273 277 
3 275 274 300 
3 348 275 300 
3 348 349 275 
3 349 278 275 
3 276 350 347 
3 351 350 276 
3 276 279 351 
3 352 279 278 
3 278 349 352 
3 352 351 279 
3 280 282 353 
3 280 354 281 
3 280 355 354 
3 353 355 280 
3 356 281 357 
3 358 357 281 
3 283 281 356 
3 358 281 354 
3 282 298 353 
3 284 283 359 
3 360 359 283 
3 283 356 360 
3 361 285 284 
3 362 361 284 
3 362 284 359 
3 285 361 363 
3 363 286 285 
3 363 364 286 
3 364 365 286 
3 365 366 286 
3 286 366 287 
3 366 295 287 
3 292 288 289 
3 367 292 289 
3 296 367 289 
3 368 290 292 
3 290 368 369 
3 290 369 293 
3 290 293 291 
3 367 368 292 
3 294 293 369 
3 308 294 369 
3 370 295 366 
3 296 295 370 
3 371 372 296 
3 296 373 374 
3 371 296 374 
3 370 365 296 
3 373 296 365 
3 296 372 367 
3 353 298 299 
3 299 336 375 
3 375 353 299 
3 336 299 331 
3 348 300 376 
3 376 300 301 
3 377 376 301 
3 302 378 301 
3 377 301 378 
3 302 303 379 
3 380 302 379 
3 378 302 380 
3 379 303 327 
3 305 304 324 
3 306 305 320 
3 324 320 305 
3 306 320 381 
3 382 307 306 
3 382 306 381 
3 328 307 383 
3 383 307 382 
3 308 384 309 
3 308 369 368 
3 384 308 368 
3 384 385 309 
3 309 385 314 
3 311 315 386 
3 387 388 311 
3 387 311 389 
3 386 389 311 
3 313 311 388 
3 388 312 313 
3 312 388 317 
3 314 390 315 
3 391 390 314 
3 314 392 391 
3 385 393 314 
3 314 393 394 
3 314 394 392 
3 386 315 390 
3 395 316 317 
3 396 397 316 
3 316 395 396 
3 326 316 397 
3 317 398 399 
3 317 388 398 
3 396 317 400 
3 317 396 395 
3 400 317 399 
3 326 321 318 
3 381 320 319 
3 401 402 319 
3 319 323 401 
3 402 381 319 
3 321 403 322 
3 403 321 404 
3 404 321 326 
3 403 325 322 
3 323 405 406 
3 325 405 323 
3 401 323 406 
3 405 325 403 
3 407 326 408 
3 409 404 326 
3 326 407 409 
3 397 408 326 
3 327 410 379 
3 411 410 327 
3 412 411 327 
3 412 327 330 
3 328 413 329 
3 383 413 328 
3 414 330 329 
3 414 329 413 
3 412 330 415 
3 415 330 414 
3 332 335 337 
3 342 416 333 
3 333 416 334 
3 417 334 416 
3 418 334 417 
3 419 334 418 
3 334 419 420 
3 420 335 334 
3 335 420 337 
3 421 336 339 
3 336 422 375 
3 336 421 422 
3 337 420 423 
3 337 424 338 
3 337 423 425 
3 337 425 426 
3 426 424 337 
3 427 339 338 
3 424 427 338 
3 427 421 339 
3 428 341 340 
3 344 429 340 
3 340 429 428 
3 341 416 342 
3 341 430 416 
3 431 430 341 
3 432 431 341 
3 428 432 341 
3 343 433 344 
3 345 433 343 
3 344 434 429 
3 433 434 344 
3 433 345 435 
3 435 345 347 
3 436 435 347 
3 436 347 350 
3 376 377 348 
3 348 437 438 
3 439 349 348 
3 438 439 348 
3 437 348 377 
3 352 349 440 
3 349 439 440 
3 436 350 441 
3 351 442 350 
3 441 350 442 
3 442 351 352 
3 440 443 352 
3 352 443 442 
3 444 353 375 
3 444 355 353 
3 358 354 355 
3 355 445 358 
3 444 445 355 
3 357 360 356 
3 446 360 357 
3 447 357 358 
3 446 357 447 
3 448 449 358 
3 358 445 448 
3 358 449 450 
3 450 447 358 
3 360 446 359 
3 359 446 451 
3 359 451 362 
3 364 361 362 
3 361 364 363 
3 452 364 362 
3 362 451 452 
3 364 452 373 
3 373 365 364 
3 365 370 366 
3 368 367 453 
3 453 367 372 
3 368 453 454 
3 368 455 384 
3 368 454 455 
3 372 371 456 
3 374 457 371 
3 456 371 458 
3 458 371 457 
3 372 456 459 
3 453 372 459 
3 374 373 452 
3 460 461 374 
3 374 452 460 
3 462 374 461 
3 462 457 374 
3 463 375 464 
3 375 422 464 
3 444 375 463 
3 465 377 466 
3 378 466 377 
3 437 377 465 
3 467 378 380 
3 468 469 378 
3 469 466 378 
3 470 378 467 
3 470 468 378 
3 379 471 380 
3 472 379 410 
3 379 472 471 
3 471 467 380 
3 381 402 473 
3 382 381 473 
3 382 473 474 
3 474 383 382 
3 475 383 476 
3 475 414 383 
3 414 413 383 
3 477 383 474 
3 476 383 477 
3 384 393 385 
3 455 393 384 
3 386 390 391 
3 391 478 386 
3 389 386 479 
3 479 386 478 
3 398 388 387 
3 480 387 389 
3 387 481 482 
3 398 387 483 
3 481 387 480 
3 482 483 387 
3 389 479 480 
3 484 485 391 
3 485 486 391 
3 487 488 391 
3 391 488 478 
3 391 486 487 
3 489 484 391 
3 391 392 489 
3 489 392 394 
3 455 490 393 
3 490 394 393 
3 489 394 490 
3 397 396 491 
3 396 400 491 
3 408 397 492 
3 491 493 397 
3 492 397 493 
3 399 398 483 
3 494 399 483 
3 399 494 400 
3 491 400 495 
3 400 494 495 
3 402 401 496 
3 401 406 497 
3 498 496 401 
3 497 498 401 
3 402 496 498 
3 499 500 402 
3 500 473 402 
3 501 402 498 
3 501 499 402 
3 403 502 405 
3 502 403 404 
3 503 502 404 
3 504 404 409 
3 503 404 504 
3 406 405 497 
3 497 405 502 
3 505 407 408 
3 409 407 506 
3 506 407 505 
3 505 408 507 
3 408 508 507 
3 408 509 508 
3 408 492 509 
3 409 506 504 
3 472 410 411 
3 510 511 411 
3 512 472 411 
3 411 412 510 
3 411 511 512 
3 510 412 415 
3 475 415 414 
3 510 415 475 
3 417 416 430 
3 432 513 417 
3 417 430 431 
3 417 431 432 
3 418 417 513 
3 418 513 514 
3 514 419 418 
3 419 423 420 
3 423 419 425 
3 425 419 514 
3 421 515 422 
3 516 515 421 
3 427 516 421 
3 464 422 515 
3 517 516 424 
3 424 516 427 
3 518 424 426 
3 517 424 518 
3 426 425 519 
3 519 425 514 
3 520 518 426 
3 519 521 426 
3 520 426 521 
3 428 429 522 
3 428 513 432 
3 428 523 513 
3 524 523 428 
3 522 524 428 
3 525 429 434 
3 522 429 525 
3 433 435 436 
3 434 433 526 
3 527 433 436 
3 526 433 527 
3 528 529 434 
3 434 526 528 
3 525 434 529 
3 441 530 436 
3 527 436 530 
3 465 438 437 
3 439 438 531 
3 438 465 531 
3 439 532 440 
3 531 532 439 
3 533 534 440 
3 440 532 533 
3 443 440 534 
3 441 442 535 
3 530 441 535 
3 535 442 443 
3 443 536 537 
3 443 538 536 
3 535 443 537 
3 534 538 443 
3 539 540 444 
3 445 444 541 
3 463 539 444 
3 541 444 540 
3 445 542 543 
3 541 544 445 
3 543 448 445 
3 542 445 544 
3 446 447 545 
3 451 446 545 
3 450 546 447 
3 546 545 447 
3 547 449 448 
3 547 448 543 
3 449 546 450 
3 548 546 449 
3 548 449 549 
3 549 449 547 
3 452 451 545 
3 460 452 545 
3 459 550 453 
3 454 453 550 
3 454 550 455 
3 550 490 455 
3 459 456 551 
3 551 456 458 
3 457 552 458 
3 553 552 457 
3 553 457 462 
3 458 552 554 
3 554 555 458 
3 551 458 555 
3 459 551 556 
3 550 459 557 
3 459 556 557 
3 460 558 461 
3 548 460 545 
3 460 548 558 
3 461 558 559 
3 461 559 560 
3 561 461 560 
3 461 561 462 
3 562 462 561 
3 462 562 553 
3 464 563 463 
3 563 539 463 
3 464 515 564 
3 564 563 464 
3 465 466 565 
3 565 566 465 
3 567 568 465 
3 465 569 531 
3 568 569 465 
3 570 567 465 
3 465 566 571 
3 571 570 465 
3 466 469 565 
3 467 572 573 
3 467 574 470 
3 471 572 467 
3 573 574 467 
3 565 469 468 
3 468 470 565 
3 566 565 470 
3 470 574 566 
3 512 471 472 
3 512 575 471 
3 576 572 471 
3 471 575 576 
3 477 474 473 
3 477 473 577 
3 577 473 500 
3 578 475 476 
3 475 578 510 
3 578 476 579 
3 580 579 476 
3 580 476 477 
3 581 580 477 
3 581 477 577 
3 478 582 479 
3 488 583 478 
3 584 582 478 
3 478 583 584 
3 480 479 582 
3 480 585 481 
3 480 582 585 
3 481 585 482 
3 586 482 585 
3 483 482 587 
3 482 586 587 
3 494 483 587 
3 484 556 485 
3 557 484 588 
3 489 588 484 
3 484 557 556 
3 485 556 486 
3 589 486 556 
3 589 590 486 
3 487 486 590 
3 488 487 591 
3 592 593 487 
3 590 594 487 
3 487 593 591 
3 487 594 592 
3 591 583 488 
3 588 489 490 
3 588 490 550 
3 493 491 495 
3 509 492 493 
3 595 596 493 
3 493 495 595 
3 509 493 596 
3 494 587 597 
3 494 597 598 
3 598 495 494 
3 599 495 598 
3 600 601 495 
3 495 602 600 
3 495 599 602 
3 595 495 601 
3 504 498 497 
3 497 502 503 
3 504 497 503 
3 498 504 501 
3 603 500 499 
3 499 604 605 
3 605 603 499 
3 604 499 501 
3 577 500 603 
3 606 501 504 
3 606 604 501 
3 504 507 606 
3 507 504 506 
3 506 505 507 
3 507 607 606 
3 507 608 607 
3 608 507 508 
3 609 508 509 
3 508 610 608 
3 508 609 610 
3 596 611 509 
3 509 611 601 
3 612 613 509 
3 612 509 601 
3 509 613 609 
3 511 510 578 
3 575 512 511 
3 578 614 511 
3 575 511 614 
3 514 513 615 
3 615 513 523 
3 615 616 514 
3 617 519 514 
3 514 616 617 
3 516 564 515 
3 517 564 516 
3 518 564 517 
3 518 520 618 
3 564 518 618 
3 619 521 519 
3 519 617 619 
3 620 618 520 
3 621 622 520 
3 621 520 623 
3 520 622 624 
3 624 620 520 
3 521 623 520 
3 521 619 623 
3 525 625 522 
3 522 625 524 
3 524 615 523 
3 615 524 625 
3 525 626 627 
3 525 628 626 
3 629 628 525 
3 525 529 629 
3 625 525 627 
3 528 526 630 
3 631 630 526 
3 527 631 526 
3 631 527 632 
3 530 632 527 
3 629 529 528 
3 633 629 528 
3 633 528 630 
3 535 634 530 
3 530 634 635 
3 635 632 530 
3 531 636 532 
3 531 569 636 
3 532 637 533 
3 636 638 532 
3 638 637 532 
3 533 538 534 
3 637 538 533 
3 639 634 535 
3 535 640 639 
3 537 641 535 
3 641 640 535 
3 642 537 536 
3 643 536 644 
3 536 538 644 
3 642 536 643 
3 537 642 641 
3 645 538 637 
3 646 538 645 
3 646 644 538 
3 539 647 540 
3 648 647 539 
3 649 648 539 
3 563 649 539 
3 540 647 650 
3 651 541 540 
3 651 540 650 
3 541 652 544 
3 652 541 651 
3 543 542 547 
3 544 652 542 
3 653 542 652 
3 653 547 542 
3 545 546 548 
3 653 654 547 
3 547 654 549 
3 558 548 549 
3 558 549 559 
3 655 549 654 
3 559 549 655 
3 588 550 557 
3 656 556 551 
3 551 555 656 
3 554 552 553 
3 553 562 554 
3 657 658 554 
3 554 658 659 
3 555 554 659 
3 657 554 562 
3 589 656 555 
3 590 589 555 
3 555 659 590 
3 556 656 589 
3 559 655 660 
3 559 660 661 
3 560 559 661 
3 560 661 662 
3 560 662 561 
3 562 561 663 
3 561 664 663 
3 561 662 664 
3 665 666 562 
3 657 562 666 
3 667 665 562 
3 562 663 667 
3 668 669 563 
3 668 563 564 
3 649 563 669 
3 618 668 564 
3 573 566 574 
3 670 571 566 
3 670 566 573 
3 671 568 567 
3 567 672 673 
3 673 674 567 
3 570 672 567 
3 567 674 671 
3 568 671 646 
3 646 569 568 
3 638 636 569 
3 569 646 638 
3 675 570 676 
3 677 676 570 
3 570 670 677 
3 672 570 675 
3 570 571 670 
3 678 573 572 
3 679 678 572 
3 572 576 679 
3 573 678 670 
3 575 614 679 
3 679 576 575 
3 680 577 603 
3 581 577 680 
3 681 614 578 
3 579 681 578 
3 682 681 579 
3 579 683 684 
3 580 685 579 
3 684 682 579 
3 686 683 579 
3 686 579 685 
3 687 685 580 
3 687 580 581 
3 688 581 680 
3 581 688 687 
3 689 585 582 
3 584 689 582 
3 583 690 584 
3 591 691 583 
3 690 583 692 
3 583 691 692 
3 693 584 694 
3 584 695 689 
3 696 694 584 
3 693 695 584 
3 584 690 696 
3 585 689 586 
3 586 689 697 
3 697 698 586 
3 586 699 587 
3 698 699 586 
3 597 587 699 
3 594 590 659 
3 593 691 591 
3 593 592 691 
3 691 592 700 
3 701 700 592 
3 592 594 701 
3 594 702 701 
3 659 702 594 
3 595 611 596 
3 601 611 595 
3 597 698 703 
3 704 597 703 
3 699 698 597 
3 598 597 704 
3 598 704 705 
3 598 705 599 
3 602 599 706 
3 599 707 706 
3 707 599 705 
3 600 708 601 
3 708 600 602 
3 709 601 710 
3 711 612 601 
3 601 708 710 
3 711 601 709 
3 602 706 708 
3 603 605 604 
3 603 604 680 
3 604 606 712 
3 713 680 604 
3 714 713 604 
3 604 712 715 
3 714 604 715 
3 606 607 716 
3 712 606 716 
3 716 607 608 
3 716 608 610 
3 609 613 717 
3 718 610 609 
3 609 717 718 
3 716 610 719 
3 720 610 718 
3 719 610 720 
3 613 612 711 
3 613 711 717 
3 614 721 679 
3 721 614 682 
3 682 614 681 
3 616 615 722 
3 722 615 625 
3 616 722 617 
3 619 617 722 
3 668 618 723 
3 618 620 723 
3 619 724 725 
3 619 726 623 
3 727 619 728 
3 727 726 619 
3 724 619 722 
3 725 728 619 
3 729 620 730 
3 620 624 730 
3 729 723 620 
3 622 621 731 
3 623 726 621 
3 732 731 621 
3 732 621 726 
3 622 731 733 
3 624 622 734 
3 734 622 733 
3 730 624 734 
3 735 736 625 
3 736 722 625 
3 735 625 627 
3 627 626 737 
3 737 626 738 
3 738 626 628 
3 627 739 735 
3 737 740 627 
3 739 627 740 
3 738 628 629 
3 633 741 629 
3 629 741 738 
3 633 630 631 
3 631 742 743 
3 631 741 633 
3 742 631 632 
3 743 741 631 
3 632 635 742 
3 744 634 639 
3 745 635 634 
3 746 745 634 
3 747 746 634 
3 747 634 744 
3 745 742 635 
3 638 645 637 
3 645 638 646 
3 639 640 744 
3 744 640 641 
3 641 642 748 
3 744 641 749 
3 749 641 748 
3 748 642 643 
3 643 644 646 
3 646 750 643 
3 751 643 750 
3 643 751 748 
3 750 646 671 
3 650 647 648 
3 648 729 650 
3 752 729 648 
3 649 752 648 
3 753 752 649 
3 753 649 669 
3 650 729 651 
3 651 754 652 
3 651 729 730 
3 754 651 730 
3 652 754 755 
3 652 755 653 
3 654 653 756 
3 757 756 653 
3 653 755 757 
3 655 654 660 
3 660 654 756 
3 657 758 658 
3 702 657 666 
3 702 758 657 
3 659 658 758 
3 758 702 659 
3 756 759 660 
3 660 759 760 
3 660 760 761 
3 761 661 660 
3 662 661 761 
3 664 662 761 
3 762 663 664 
3 663 762 667 
3 664 763 764 
3 664 764 762 
3 761 763 664 
3 665 765 666 
3 766 665 667 
3 766 765 665 
3 767 701 666 
3 666 701 702 
3 768 666 765 
3 666 768 767 
3 766 667 769 
3 769 667 762 
3 753 669 668 
3 723 753 668 
3 677 670 678 
3 671 770 750 
3 770 671 674 
3 771 673 672 
3 771 672 772 
3 772 672 675 
3 674 673 773 
3 771 773 673 
3 774 770 674 
3 674 773 774 
3 775 675 676 
3 775 776 675 
3 675 776 772 
3 775 676 677 
3 677 777 775 
3 777 677 678 
3 678 679 777 
3 778 679 721 
3 679 778 777 
3 680 713 688 
3 682 779 721 
3 682 780 779 
3 682 684 780 
3 683 781 684 
3 683 782 781 
3 783 782 683 
3 784 783 683 
3 686 785 683 
3 786 683 785 
3 786 784 683 
3 779 780 684 
3 781 779 684 
3 686 685 687 
3 687 785 686 
3 687 787 785 
3 788 687 688 
3 789 787 687 
3 789 687 790 
3 687 788 790 
3 688 791 788 
3 791 688 713 
3 697 689 695 
3 692 696 690 
3 792 691 700 
3 692 691 792 
3 696 692 793 
3 794 692 792 
3 794 793 692 
3 795 693 694 
3 704 693 795 
3 695 693 704 
3 796 694 696 
3 797 798 694 
3 799 694 798 
3 694 799 795 
3 797 694 796 
3 697 695 703 
3 704 703 695 
3 796 696 793 
3 703 698 697 
3 800 700 801 
3 700 802 801 
3 700 800 792 
3 802 700 701 
3 802 701 767 
3 795 705 704 
3 705 795 707 
3 706 803 804 
3 706 707 803 
3 710 708 706 
3 804 710 706 
3 795 799 707 
3 799 803 707 
3 710 805 709 
3 806 709 805 
3 807 709 806 
3 711 709 807 
3 808 710 804 
3 805 710 808 
3 807 809 711 
3 810 711 809 
3 810 717 711 
3 716 715 712 
3 713 714 791 
3 714 811 812 
3 714 813 814 
3 812 791 714 
3 814 815 714 
3 715 813 714 
3 811 714 815 
3 719 715 716 
3 813 715 719 
3 717 810 718 
3 718 810 816 
3 720 718 816 
3 813 719 814 
3 719 720 817 
3 719 817 814 
3 720 816 817 
3 721 779 778 
3 724 722 736 
3 723 729 752 
3 723 752 753 
3 725 724 818 
3 819 724 736 
3 820 818 724 
3 724 819 820 
3 818 821 725 
3 728 725 821 
3 732 726 822 
3 822 726 727 
3 823 727 728 
3 823 822 727 
3 821 824 728 
3 825 823 728 
3 728 824 825 
3 730 826 827 
3 754 730 827 
3 826 730 734 
3 731 828 829 
3 830 828 731 
3 831 731 732 
3 830 731 831 
3 733 731 829 
3 822 831 732 
3 832 733 833 
3 829 834 733 
3 832 835 733 
3 733 836 734 
3 733 835 836 
3 837 733 834 
3 833 733 837 
3 734 836 826 
3 736 735 739 
3 739 838 736 
3 736 838 819 
3 839 740 737 
3 840 839 737 
3 737 738 840 
3 840 738 743 
3 738 741 743 
3 838 739 740 
3 838 740 841 
3 841 740 839 
3 840 743 742 
3 742 745 840 
3 744 842 747 
3 744 749 842 
3 840 745 746 
3 843 840 746 
3 843 746 747 
3 843 747 842 
3 748 751 844 
3 844 845 748 
3 748 845 749 
3 846 842 749 
3 749 847 848 
3 848 846 749 
3 749 845 849 
3 749 849 850 
3 851 749 852 
3 851 847 749 
3 850 852 749 
3 750 774 751 
3 770 774 750 
3 774 853 751 
3 853 844 751 
3 854 755 754 
3 854 754 827 
3 855 757 755 
3 855 755 854 
3 756 757 759 
3 759 757 855 
3 856 857 759 
3 856 759 855 
3 858 759 857 
3 760 759 858 
3 760 763 761 
3 760 858 763 
3 764 859 762 
3 860 762 859 
3 769 762 860 
3 764 763 858 
3 861 862 764 
3 764 858 861 
3 764 862 859 
3 765 863 768 
3 863 765 766 
3 769 863 766 
3 767 864 802 
3 767 768 864 
3 768 863 865 
3 864 768 865 
3 769 866 867 
3 769 868 866 
3 769 869 870 
3 860 868 769 
3 871 869 769 
3 870 863 769 
3 769 867 871 
3 771 872 773 
3 872 771 873 
3 873 771 772 
3 772 874 875 
3 875 873 772 
3 772 776 874 
3 773 853 774 
3 876 773 877 
3 773 876 853 
3 877 773 872 
3 777 878 775 
3 776 775 874 
3 775 878 781 
3 874 775 781 
3 878 777 778 
3 878 778 779 
3 781 878 779 
3 782 879 781 
3 781 879 874 
3 880 881 782 
3 879 782 881 
3 783 880 782 
3 882 880 783 
3 882 783 784 
3 883 784 786 
3 882 784 883 
3 787 786 785 
3 789 786 787 
3 786 789 883 
3 791 790 788 
3 883 789 884 
3 884 789 885 
3 790 885 789 
3 790 886 887 
3 887 885 790 
3 886 790 791 
3 791 888 889 
3 791 812 888 
3 889 886 791 
3 890 794 792 
3 891 792 800 
3 792 891 890 
3 793 794 796 
3 794 892 893 
3 892 794 890 
3 796 794 894 
3 895 894 794 
3 794 893 895 
3 896 797 796 
3 894 896 796 
3 896 798 797 
3 799 798 896 
3 897 799 896 
3 799 897 803 
3 891 800 801 
3 864 801 802 
3 801 864 898 
3 801 890 891 
3 890 801 898 
3 899 804 803 
3 803 897 899 
3 804 899 900 
3 808 804 901 
3 804 900 901 
3 808 806 805 
3 808 902 806 
3 903 806 902 
3 904 807 806 
3 904 806 903 
3 905 906 807 
3 807 906 809 
3 907 807 904 
3 905 807 907 
3 908 902 808 
3 808 901 908 
3 809 906 810 
3 816 810 906 
3 812 811 909 
3 910 909 811 
3 815 910 811 
3 909 911 812 
3 911 888 812 
3 814 912 913 
3 815 814 913 
3 814 817 912 
3 910 815 914 
3 914 815 913 
3 816 915 912 
3 912 817 816 
3 905 916 816 
3 816 906 905 
3 816 917 918 
3 918 915 816 
3 917 816 916 
3 818 919 821 
3 920 919 818 
3 920 818 820 
3 921 819 838 
3 820 819 921 
3 922 820 921 
3 820 922 920 
3 824 821 919 
3 923 822 823 
3 831 822 923 
3 823 924 925 
3 825 924 823 
3 923 823 926 
3 926 823 925 
3 825 824 927 
3 824 919 928 
3 927 824 928 
3 929 825 927 
3 929 924 825 
3 827 826 836 
3 827 832 855 
3 855 854 827 
3 835 832 827 
3 827 836 835 
3 829 828 930 
3 828 830 930 
3 829 930 931 
3 829 931 834 
3 930 830 932 
3 831 932 830 
3 932 831 923 
3 833 855 832 
3 933 934 833 
3 935 933 833 
3 833 837 936 
3 936 935 833 
3 934 857 833 
3 855 833 856 
3 857 856 833 
3 834 931 937 
3 937 938 834 
3 837 834 938 
3 837 938 939 
3 940 936 837 
3 837 939 940 
3 841 941 838 
3 942 921 838 
3 942 838 941 
3 943 841 839 
3 943 839 944 
3 840 944 839 
3 945 840 946 
3 945 944 840 
3 946 840 843 
3 841 943 941 
3 846 843 842 
3 846 946 843 
3 844 853 947 
3 845 844 948 
3 947 948 844 
3 948 849 845 
3 946 846 949 
3 848 949 846 
3 950 848 847 
3 851 951 847 
3 952 950 847 
3 847 951 953 
3 953 952 847 
3 954 949 848 
3 954 848 950 
3 849 948 955 
3 955 850 849 
3 852 850 955 
3 852 956 851 
3 851 957 958 
3 851 956 957 
3 959 951 851 
3 851 958 959 
3 956 852 955 
3 947 853 876 
3 858 857 934 
3 861 858 960 
3 858 934 960 
3 859 862 961 
3 859 962 860 
3 962 859 961 
3 860 962 868 
3 961 862 861 
3 963 861 960 
3 964 965 861 
3 861 963 964 
3 861 965 966 
3 861 967 961 
3 967 861 966 
3 870 865 863 
3 865 968 864 
3 898 864 968 
3 870 969 865 
3 968 865 969 
3 867 866 970 
3 866 961 967 
3 866 868 962 
3 967 971 866 
3 866 962 961 
3 866 971 972 
3 866 972 970 
3 871 867 970 
3 870 869 973 
3 869 974 973 
3 869 871 974 
3 975 870 973 
3 969 870 975 
3 871 970 974 
3 872 976 877 
3 872 873 976 
3 977 978 873 
3 978 976 873 
3 873 875 977 
3 875 874 979 
3 979 874 879 
3 979 980 875 
3 980 977 875 
3 981 876 877 
3 876 981 947 
3 982 877 976 
3 877 982 981 
3 983 979 879 
3 879 881 984 
3 984 983 879 
3 984 881 880 
3 984 880 985 
3 985 880 882 
3 884 882 883 
3 985 882 986 
3 884 986 882 
3 987 986 884 
3 987 884 885 
3 885 988 987 
3 885 887 988 
3 889 887 886 
3 989 990 887 
3 990 988 887 
3 989 887 889 
3 889 888 991 
3 911 992 888 
3 991 888 992 
3 991 993 889 
3 993 989 889 
3 890 898 892 
3 994 893 892 
3 892 995 994 
3 898 995 892 
3 893 996 997 
3 893 994 996 
3 893 998 895 
3 999 998 893 
3 997 999 893 
3 896 894 897 
3 1000 894 895 
3 1000 897 894 
3 998 1000 895 
3 899 897 1000 
3 1001 995 898 
3 898 968 1001 
3 900 899 1000 
3 1000 1002 900 
3 901 900 1002 
3 901 1002 1003 
3 908 901 1003 
3 1004 903 902 
3 1005 902 908 
3 1005 1004 902 
3 903 1004 1006 
3 1007 904 903 
3 903 1006 1008 
3 1008 1007 903 
3 904 1007 907 
3 907 916 905 
3 1009 907 1010 
3 907 1007 1011 
3 1011 1010 907 
3 1009 916 907 
3 908 1003 1005 
3 911 909 1012 
3 909 1013 1012 
3 910 1013 909 
3 1014 1015 910 
3 1016 1017 910 
3 910 1018 1016 
3 914 1018 910 
3 1017 1014 910 
3 1015 1013 910 
3 1012 992 911 
3 913 912 915 
3 914 913 1019 
3 915 1019 913 
3 914 1020 1021 
3 1021 1018 914 
3 914 1022 1020 
3 914 1023 1024 
3 1023 914 1025 
3 1019 1025 914 
3 914 1024 1022 
3 1026 915 1027 
3 918 1027 915 
3 1025 1019 915 
3 915 1028 1025 
3 915 1026 1028 
3 916 1009 917 
3 1027 918 917 
3 1027 917 1009 
3 919 920 928 
3 928 920 1029 
3 1029 920 922 
3 942 922 921 
3 1030 1029 922 
3 1031 922 942 
3 1030 922 1031 
3 1032 932 923 
3 1032 923 926 
3 925 924 929 
3 925 1033 926 
3 1033 925 1034 
3 1035 1036 925 
3 1036 1034 925 
3 929 1035 925 
3 926 930 1032 
3 926 1033 930 
3 1037 927 928 
3 1038 927 1037 
3 1038 929 927 
3 928 1029 1037 
3 929 1038 1039 
3 1039 1035 929 
3 931 930 1033 
3 930 932 1032 
3 1033 937 931 
3 960 934 933 
3 960 933 963 
3 933 935 1040 
3 933 1040 963 
3 1041 935 936 
3 1040 935 1041 
3 940 1041 936 
3 938 937 1042 
3 1034 1043 937 
3 1033 1034 937 
3 1042 937 1043 
3 1042 1044 938 
3 1044 939 938 
3 1045 939 1046 
3 1046 939 1047 
3 939 1044 1047 
3 940 939 1045 
3 1048 940 1049 
3 1041 940 1048 
3 1045 1050 940 
3 1049 940 1050 
3 941 1051 942 
3 1052 1053 941 
3 941 943 1052 
3 1053 1051 941 
3 942 1051 1054 
3 1031 942 1055 
3 1055 942 1054 
3 1052 943 944 
3 1052 944 945 
3 1056 945 946 
3 945 1056 1052 
3 954 946 949 
3 1056 946 954 
3 947 981 1057 
3 1058 948 947 
3 1058 947 1057 
3 1059 948 1058 
3 1060 955 948 
3 1061 1060 948 
3 1061 948 1059 
3 950 1062 954 
3 952 1062 950 
3 951 1063 953 
3 1064 1063 951 
3 1065 1064 951 
3 951 1066 1065 
3 959 1066 951 
3 1067 952 953 
3 1062 952 1067 
3 953 1068 1067 
3 1069 953 1063 
3 1069 1068 953 
3 954 1062 1056 
3 957 956 955 
3 957 955 1060 
3 1070 958 957 
3 1070 957 1060 
3 1071 958 1070 
3 1071 959 958 
3 1066 959 1071 
3 963 1040 1072 
3 963 1072 1073 
3 964 963 1073 
3 1074 965 964 
3 1074 964 1049 
3 1073 1049 964 
3 965 1074 1075 
3 966 965 1075 
3 967 966 1075 
3 967 1075 1076 
3 971 967 1076 
3 1001 968 1077 
3 1077 968 969 
3 969 975 1077 
3 970 1078 1079 
3 970 1080 1078 
3 1080 970 972 
3 974 970 1079 
3 1081 972 971 
3 971 1076 1082 
3 971 1082 1081 
3 1083 972 1081 
3 972 1083 1080 
3 973 974 1084 
3 973 1085 975 
3 1085 973 1084 
3 1084 974 1079 
3 975 1085 1086 
3 975 994 1077 
3 975 997 994 
3 1087 997 975 
3 975 1086 1087 
3 1088 976 978 
3 982 976 1088 
3 978 977 1088 
3 1088 977 980 
3 979 1089 980 
3 1090 1089 979 
3 979 983 1090 
3 1088 980 1089 
3 981 982 1057 
3 1088 1091 982 
3 1057 982 1091 
3 983 984 985 
3 985 1090 983 
3 1092 1090 985 
3 985 986 1093 
3 1093 1092 985 
3 1093 986 987 
3 1093 987 1094 
3 1094 987 988 
3 1094 988 1095 
3 1095 988 990 
3 1095 990 989 
3 993 1095 989 
3 991 1096 993 
3 991 1097 1096 
3 992 1098 991 
3 1097 991 1099 
3 1099 991 1098 
3 1012 1100 992 
3 992 1101 1098 
3 1101 992 1102 
3 1102 992 1100 
3 1096 1103 993 
3 1104 993 1103 
3 1104 1095 993 
3 997 996 994 
3 995 1077 994 
3 995 1001 1077 
3 999 997 1087 
3 998 999 1105 
3 998 1106 1107 
3 1000 998 1108 
3 1107 1109 998 
3 1106 998 1105 
3 998 1109 1108 
3 1110 999 1087 
3 1111 999 1110 
3 1105 999 1111 
3 1108 1002 1000 
3 1002 1109 1003 
3 1108 1109 1002 
3 1107 1112 1003 
3 1003 1109 1107 
3 1112 1005 1003 
3 1005 1112 1004 
3 1006 1004 1113 
3 1114 1113 1004 
3 1004 1112 1114 
3 1008 1006 1113 
3 1007 1008 1011 
3 1008 1115 1011 
3 1008 1116 1117 
3 1118 1115 1008 
3 1117 1118 1008 
3 1113 1116 1008 
3 1119 1009 1010 
3 1120 1009 1119 
3 1027 1009 1120 
3 1010 1011 1121 
3 1010 1122 1119 
3 1010 1121 1123 
3 1123 1122 1010 
3 1115 1124 1011 
3 1121 1011 1124 
3 1100 1012 1013 
3 1100 1013 1015 
3 1125 1015 1014 
3 1125 1014 1126 
3 1014 1127 1126 
3 1017 1127 1014 
3 1100 1015 1128 
3 1125 1129 1015 
3 1015 1130 1128 
3 1129 1130 1015 
3 1131 1017 1016 
3 1018 1131 1016 
3 1127 1017 1131 
3 1131 1018 1132 
3 1018 1021 1133 
3 1134 1132 1018 
3 1133 1134 1018 
3 1133 1021 1020 
3 1133 1020 1022 
3 1022 1135 1133 
3 1135 1022 1136 
3 1022 1024 1136 
3 1023 1137 1024 
3 1025 1137 1023 
3 1024 1137 1138 
3 1024 1138 1136 
3 1025 1028 1139 
3 1137 1025 1139 
3 1026 1027 1120 
3 1140 1026 1120 
3 1026 1140 1141 
3 1028 1026 1142 
3 1141 1142 1026 
3 1139 1028 1138 
3 1138 1028 1142 
3 1029 1143 1037 
3 1029 1030 1143 
3 1143 1030 1031 
3 1055 1144 1031 
3 1145 1031 1144 
3 1145 1143 1031 
3 1034 1036 1043 
3 1146 1036 1035 
3 1146 1035 1039 
3 1036 1146 1147 
3 1042 1043 1036 
3 1036 1147 1042 
3 1038 1037 1148 
3 1037 1149 1148 
3 1149 1037 1143 
3 1148 1150 1038 
3 1150 1039 1038 
3 1147 1146 1039 
3 1151 1147 1039 
3 1152 1153 1039 
3 1150 1152 1039 
3 1153 1151 1039 
3 1041 1072 1040 
3 1072 1041 1048 
3 1147 1044 1042 
3 1047 1044 1154 
3 1155 1154 1044 
3 1155 1044 1147 
3 1156 1045 1046 
3 1157 1045 1156 
3 1050 1045 1157 
3 1046 1047 1156 
3 1047 1154 1156 
3 1049 1073 1048 
3 1073 1072 1048 
3 1049 1158 1074 
3 1158 1049 1159 
3 1050 1159 1049 
3 1160 1159 1050 
3 1050 1157 1160 
3 1054 1051 1053 
3 1161 1053 1052 
3 1162 1161 1052 
3 1162 1052 1068 
3 1068 1052 1056 
3 1053 1161 1163 
3 1053 1163 1054 
3 1055 1054 1163 
3 1055 1163 1164 
3 1144 1055 1164 
3 1062 1068 1056 
3 1057 1165 1166 
3 1165 1057 1091 
3 1057 1166 1058 
3 1059 1058 1166 
3 1059 1166 1167 
3 1168 1059 1167 
3 1061 1059 1168 
3 1070 1060 1061 
3 1071 1070 1061 
3 1169 1071 1061 
3 1169 1061 1168 
3 1067 1068 1062 
3 1063 1170 1069 
3 1063 1171 1170 
3 1172 1171 1063 
3 1173 1172 1063 
3 1173 1063 1174 
3 1174 1063 1064 
3 1065 1174 1064 
3 1065 1175 1174 
3 1065 1066 1175 
3 1176 1066 1071 
3 1176 1175 1066 
3 1068 1170 1177 
3 1177 1162 1068 
3 1069 1170 1068 
3 1071 1169 1176 
3 1178 1075 1074 
3 1074 1158 1178 
3 1075 1178 1179 
3 1179 1082 1075 
3 1075 1082 1076 
3 1079 1078 1180 
3 1180 1078 1181 
3 1078 1080 1182 
3 1078 1182 1181 
3 1079 1180 1183 
3 1084 1079 1183 
3 1080 1083 1182 
3 1179 1081 1082 
3 1184 1081 1179 
3 1184 1185 1081 
3 1083 1081 1185 
3 1182 1083 1185 
3 1084 1183 1085 
3 1186 1086 1085 
3 1085 1183 1187 
3 1085 1187 1188 
3 1188 1186 1085 
3 1086 1186 1189 
3 1086 1189 1190 
3 1110 1087 1086 
3 1086 1190 1191 
3 1191 1110 1086 
3 1192 1088 1089 
3 1165 1091 1088 
3 1088 1192 1165 
3 1089 1090 1192 
3 1193 1192 1090 
3 1193 1090 1092 
3 1092 1093 1194 
3 1194 1193 1092 
3 1194 1093 1094 
3 1095 1194 1094 
3 1095 1195 1196 
3 1196 1194 1095 
3 1104 1195 1095 
3 1096 1197 1103 
3 1197 1096 1097 
3 1097 1198 1197 
3 1198 1097 1199 
3 1099 1199 1097 
3 1098 1101 1099 
3 1200 1099 1101 
3 1200 1201 1099 
3 1199 1099 1201 
3 1202 1102 1100 
3 1203 1202 1100 
3 1100 1128 1203 
3 1200 1101 1102 
3 1204 1102 1202 
3 1204 1200 1102 
3 1205 1206 1103 
3 1103 1197 1205 
3 1103 1206 1104 
3 1207 1104 1208 
3 1207 1195 1104 
3 1206 1208 1104 
3 1106 1105 1111 
3 1107 1106 1209 
3 1210 1209 1106 
3 1106 1111 1211 
3 1211 1210 1106 
3 1107 1209 1112 
3 1111 1110 1211 
3 1110 1191 1211 
3 1112 1212 1114 
3 1212 1112 1209 
3 1114 1213 1113 
3 1113 1213 1116 
3 1212 1213 1114 
3 1124 1115 1118 
3 1117 1116 1214 
3 1116 1213 1215 
3 1215 1214 1116 
3 1118 1117 1214 
3 1124 1118 1123 
3 1214 1123 1118 
3 1119 1216 1120 
3 1216 1119 1122 
3 1216 1217 1120 
3 1120 1218 1140 
3 1219 1120 1217 
3 1218 1120 1219 
3 1123 1121 1124 
3 1220 1122 1123 
3 1122 1221 1216 
3 1220 1221 1122 
3 1222 1123 1214 
3 1222 1220 1123 
3 1223 1129 1125 
3 1125 1126 1223 
3 1126 1127 1223 
3 1131 1224 1127 
3 1223 1127 1224 
3 1128 1130 1225 
3 1226 1203 1128 
3 1128 1225 1226 
3 1225 1130 1129 
3 1225 1129 1227 
3 1227 1129 1223 
3 1224 1131 1132 
3 1228 1224 1132 
3 1228 1132 1229 
3 1229 1132 1134 
3 1133 1230 1134 
3 1231 1230 1133 
3 1231 1133 1232 
3 1133 1233 1234 
3 1133 1234 1235 
3 1133 1135 1233 
3 1232 1133 1235 
3 1236 1134 1230 
3 1236 1229 1134 
3 1136 1237 1135 
3 1135 1237 1238 
3 1135 1238 1233 
3 1239 1136 1138 
3 1240 1136 1239 
3 1237 1136 1240 
3 1137 1139 1138 
3 1138 1142 1241 
3 1239 1138 1241 
3 1140 1218 1141 
3 1141 1218 1242 
3 1142 1141 1242 
3 1241 1142 1242 
3 1145 1149 1143 
3 1243 1144 1164 
3 1243 1145 1144 
3 1149 1145 1244 
3 1244 1145 1245 
3 1245 1145 1243 
