NORM_ASCII
1616 3228
   0.0147546   -0.2612447    0.0475325    0.0755117    0.3001390   -0.9509020
   0.0137696   -0.2613264    0.0477078   -0.0520437    0.4571731   -0.8878537
   0.0138735   -0.2610116    0.0478316   -0.2754729    0.3991364   -0.8745312
   0.0133028   -0.2609853    0.0480020   -0.1540392    0.6632770   -0.7323493
   0.0153089   -0.2619665    0.0476256    0.7472980    0.2532436   -0.6143398
   0.0151627   -0.2615932    0.0476085    0.6020933    0.2885942   -0.7444441
   0.0085889   -0.2600927    0.0487100   -0.3908744    0.1286571   -0.9114080
   0.0083712   -0.2614200    0.0488461   -0.5050281   -0.4097067   -0.7596625
   0.0080276   -0.2609668    0.0488875   -0.4995873   -0.1347758   -0.8557149
   0.0127352   -0.2609565    0.0481754   -0.2115396    0.7630192   -0.6107804
   0.0123612   -0.2609575    0.0482951    0.0151692    0.9011327   -0.4332780
   0.0118026   -0.2607165    0.0485597    0.2621283    0.8571332   -0.4434088
   0.0094884   -0.2592467    0.0488555    0.2773528    0.6027102   -0.7482084
   0.0106735   -0.2601909    0.0485443    0.3598940    0.7239613   -0.5885205
   0.0096347   -0.2588482    0.0493795    0.4560071    0.6406483   -0.6177599
   0.0104613   -0.2598646    0.0488019    0.3828157    0.6904230   -0.6138144
   0.0085054   -0.2582755    0.0493296   -0.0569199    0.4488432   -0.8917959
   0.0077991   -0.2596521    0.0490660   -0.4015458    0.1551212   -0.9026064
   0.0079705   -0.2587696    0.0492338   -0.3206007    0.2967919   -0.8995164
   0.0089149   -0.2580510    0.0495202    0.3014908    0.3867411   -0.8715128
   0.0090912   -0.2583481    0.0494294    0.4364917    0.5464907   -0.7147188
   0.0110691   -0.2602051    0.0489109    0.4792870    0.6908056   -0.5413608
   0.0112629   -0.2605112    0.0486184    0.3830087    0.8156521   -0.4336081
   0.0114647   -0.2606119    0.0485392    0.2857355    0.8678201   -0.4065014
   0.0087218   -0.2622549    0.0491811   -0.1153188   -0.1754780   -0.9777060
   0.0083361   -0.2616462    0.0489921   -0.3552817   -0.3625327   -0.8615944
   0.0083183   -0.2619110    0.0491001   -0.1205735   -0.2922436   -0.9487127
   0.0081239   -0.2632034    0.0493131   -0.1416302    0.0477037   -0.9887696
   0.0081074   -0.2631650    0.0493138   -0.0479429   -0.0985404   -0.9939775
   0.0079180   -0.2634266    0.0493008   -0.2779619   -0.1609635   -0.9470100
   0.0079451   -0.2635132    0.0493167   -0.4704050   -0.3155779   -0.8240933
   0.0078949   -0.2625034    0.0492025   -0.2231047   -0.0611438   -0.9728750
   0.0076891   -0.2628056    0.0492476   -0.2215400   -0.0980302   -0.9702114
   0.0157474   -0.2615728    0.0492470    0.9953151    0.0748141   -0.0612426
   0.0158067   -0.2617588    0.0494466    0.9907682    0.0795043   -0.1098065
   0.0157474   -0.2615728    0.0492470    0.9985341    0.0432513   -0.0325423
   0.0160491   -0.2618211    0.0521120    0.9986962    0.0377826    0.0343276
   0.0160024   -0.2619049    0.0527899    0.9914391    0.0300858    0.1270568
   0.0157707   -0.2605561    0.0495346    0.9746492    0.0601903   -0.2154905
   0.0158303   -0.2615754    0.0496397    0.9782510    0.0544316   -0.2001553
   0.0159767   -0.2610415    0.0505990    0.9919845    0.0814009   -0.0966466
   0.0160113   -0.2615137    0.0508837    0.9966206    0.0819842   -0.0050933
   0.0160227   -0.2617408    0.0510351    0.9943775    0.1005517    0.0332084
   0.0160138   -0.2609113    0.0515097    0.9951509    0.0966861   -0.0180701
   0.0160224   -0.2611783    0.0520044    0.9966779    0.0676881    0.0452937
   0.0157039   -0.2616110    0.0488159    0.9680561    0.1732600   -0.1812414
   0.0156994   -0.2617676    0.0486527    0.9767499    0.1620800   -0.1403197
   0.0157004   -0.2613812    0.0490547    0.9839482    0.1227342   -0.1295465
   0.0156089   -0.2615949    0.0484353    0.9901534    0.1008443   -0.0970908
   0.0157857   -0.2624619    0.0541109    0.9825657   -0.0175632    0.1850844
   0.0156932   -0.2621181    0.0545565    0.9728832    0.0079634    0.2311598
   0.0154138   -0.2634537    0.0553472    0.8459844   -0.1393601    0.5146739
   0.0155022   -0.2623926    0.0553033    0.9431815   -0.0279827    0.3310976
   0.0151497   -0.2626996    0.0559311    0.8862982   -0.1073359    0.4505047
   0.0137906   -0.2635976    0.0568215    0.2720787   -0.5043844    0.8194935
   0.0134542   -0.2635975    0.0568741    0.0457015   -0.5416424    0.8393658
   0.0130641   -0.2634867    0.0569395   -0.1904355   -0.4945798    0.8480125
   0.0142599   -0.2635985    0.0565369    0.4975950   -0.4367020    0.7494602
   0.0125095   -0.2638057    0.0565369    0.7608443   -0.3394926    0.5530468
   0.0126481   -0.2636498    0.0567162   -0.3824003   -0.4374663    0.8138755
   0.0125095   -0.2638057    0.0565369    0.7594259   -0.3365119    0.5568052
   0.0113385   -0.2628174    0.0562566   -0.5260704   -0.3608484    0.7700899
   0.0124548   -0.2633095    0.0568057   -0.3010139   -0.4638434    0.8332106
   0.0117933   -0.2628505    0.0565559   -0.5385251   -0.3650112    0.7594455
   0.0121382   -0.2626731    0.0568941   -0.5320023   -0.3237650    0.7824000
   0.0150413   -0.2637192    0.0557947    0.7577262   -0.2382987    0.6075070
   0.0146522   -0.2636375    0.0562153    0.6372253   -0.3240091    0.6992582
   0.0092129   -0.2634552    0.0545507   -0.5407309   -0.4079248    0.7356681
   0.0102769   -0.2624660    0.0557145   -0.5103367   -0.3812267    0.7708584
   0.0075506   -0.2630384    0.0493737   -0.6198110   -0.2594805   -0.7406107
   0.0073065   -0.2625435    0.0494712   -0.5990287   -0.0365003   -0.7998952
   0.0067789   -0.2619927    0.0499756   -0.7245878   -0.0353431   -0.6882756
   0.0067175   -0.2622287    0.0501073   -0.8220546   -0.2172551   -0.5263330
   0.0064808   -0.2619431    0.0503741   -0.8666649   -0.2190193   -0.4482439
   0.0066101   -0.2623490    0.0515114   -0.7869459   -0.6052656    0.1198736
   0.0061951   -0.2617134    0.0513470   -0.8286907   -0.5530793    0.0858774
   0.0059062   -0.2612360    0.0514200   -0.8688542   -0.4867798   -0.0902095
   0.0060754   -0.2613399    0.0509483   -0.8862763   -0.2671678   -0.3783327
   0.0066532   -0.2619794    0.0526715   -0.7777805   -0.5313319    0.3357737
   0.0067118   -0.2613348    0.0536279   -0.6806279   -0.5673700    0.4635051
   0.0075285   -0.2614868    0.0544520   -0.5623988   -0.5058993    0.6540439
   0.0065939   -0.2621795    0.0520705   -0.7623358   -0.6181935    0.1915228
   0.0067428   -0.2625050    0.0517522    0.2729893   -0.9185379    0.2859458
   0.0154998   -0.2614280    0.0482086    0.9096934    0.2163148   -0.3544937
   0.0156089   -0.2615949    0.0484353    0.9957933    0.0573401   -0.0714683
   0.0149623   -0.2611633    0.0476443    0.4139959    0.3677637   -0.8326808
   0.0145471   -0.2608805    0.0476285    0.0509688    0.3735779   -0.9261975
   0.0142871   -0.2605372    0.0478329   -0.2131944    0.4031703   -0.8899449
   0.0134175   -0.2603375    0.0483035   -0.4186971    0.2962035   -0.8584615
   0.0130919   -0.2601282    0.0485528   -0.4265944    0.2998301   -0.8532989
   0.0131127   -0.2606780    0.0482963   -0.3031293    0.5492218   -0.7787606
   0.0151675   -0.2607754    0.0480732    0.7477011    0.3449884   -0.5673852
   0.0150885   -0.2609940    0.0478357    0.6153677    0.4102170   -0.6730859
   0.0076119   -0.2602897    0.0491511   -0.5666392   -0.0255134   -0.8235709
   0.0079499   -0.2618233    0.0491449   -0.3132878   -0.1909764   -0.9302574
   0.0077365   -0.2617244    0.0492192   -0.5524137   -0.1185594   -0.8250956
   0.0077750   -0.2614198    0.0491557   -0.6401792   -0.1070776   -0.7607266
   0.0076039   -0.2609707    0.0492144   -0.6404756   -0.0981188   -0.7616848
   0.0125364   -0.2607474    0.0485366   -0.4879797    0.4832746   -0.7268573
   0.0124718   -0.2608176    0.0485345   -0.2784393    0.7662294   -0.5791062
   0.0120047   -0.2607211    0.0487454    0.1691426    0.7939481   -0.5839839
   0.0113378   -0.2605119    0.0486878    0.3309431    0.8070068   -0.4890979
   0.0115415   -0.2604538    0.0488248    0.1896978    0.6344585   -0.7493178
   0.0106161   -0.2598539    0.0489336    0.3411006    0.6160639   -0.7100110
   0.0098366   -0.2588279    0.0495470    0.2328979    0.6096197   -0.7577087
   0.0093751   -0.2584626    0.0495516    0.5089780    0.4730617   -0.7191342
   0.0095779   -0.2584597    0.0497305    0.3594282    0.3635520   -0.8594424
   0.0087437   -0.2577615    0.0496083    0.0368971    0.3261097   -0.9446116
   0.0078347   -0.2583002    0.0494495   -0.2491174    0.3712598   -0.8944868
   0.0077807   -0.2577802    0.0496992   -0.2251149    0.4220417   -0.8781822
   0.0073127   -0.2596828    0.0493576   -0.5329361    0.0912437   -0.8412215
   0.0071618   -0.2584237    0.0496456   -0.3802893    0.2966016   -0.8760180
   0.0092240   -0.2581861    0.0496141    0.3891892    0.2702848   -0.8806122
   0.0091192   -0.2579540    0.0496278    0.2346465    0.1373768   -0.9623246
   0.0090443   -0.2577781    0.0496300    0.0977205    0.0884613   -0.9912746
   0.0110779   -0.2602058    0.0489186    0.3684244    0.6328818   -0.6809729
   0.0108193   -0.2597934    0.0490696    0.2670192    0.4793359   -0.8360250
   0.0076149   -0.2620040    0.0493268   -0.5236832   -0.0240653   -0.8515731
   0.0157474   -0.2615728    0.0492470    0.9947070    0.0408381   -0.0942879
   0.0156988   -0.2612498    0.0545875    0.9749918    0.0829539    0.2061788
   0.0158131   -0.2598948    0.0529256    0.9830028    0.1617930    0.0867664
   0.0157722   -0.2600986    0.0534792    0.9667793    0.1839018    0.1775330
   0.0157318   -0.2603895    0.0539435    0.9620851    0.1708451    0.2126129
   0.0155821   -0.2602222    0.0490855    0.9232146    0.1388378   -0.3583280
   0.0157207   -0.2599822    0.0497384    0.9640287    0.2010625   -0.1738463
   0.0157054   -0.2613098    0.0491290    0.9625763    0.1026012   -0.2508385
   0.0158435   -0.2598588    0.0510389    0.9858495    0.1648834   -0.0302375
   0.0156089   -0.2615949    0.0484353    0.9824517    0.1117677   -0.1493205
   0.0155021   -0.2604962    0.0488898    0.9300160    0.1760151   -0.3226280
   0.0156670   -0.2615131    0.0546959    0.9665448   -0.0127922    0.2561787
   0.0155109   -0.2613669    0.0552132    0.9663801    0.0199104    0.2563456
   0.0152215   -0.2605690    0.0563903    0.9675962   -0.0161478    0.2519856
   0.0149848   -0.2617948    0.0566291    0.8361243   -0.2365549    0.4949120
   0.0132702   -0.2629768    0.0572777    0.0521577   -0.4553590    0.8887788
   0.0140246   -0.2633403    0.0568289    0.4316371   -0.4516611    0.7808275
   0.0130656   -0.2631031    0.0571923   -0.2027970   -0.5006973    0.8415317
   0.0144118   -0.2628590    0.0568021    0.6162617   -0.3510915    0.7049512
   0.0113923   -0.2620518    0.0566735   -0.4906371   -0.3401881    0.8022140
   0.0126039   -0.2627447    0.0572026   -0.4415937   -0.4294711    0.7877497
   0.0120457   -0.2620545    0.0571393   -0.5614171   -0.3879642    0.7309545
   0.0126933   -0.2620514    0.0576106   -0.4463164   -0.4160580    0.7922736
   0.0119385   -0.2622491    0.0569232   -0.5629512   -0.3838341    0.7319544
   0.0117397   -0.2622890    0.0567748   -0.4575014   -0.2732781    0.8461746
   0.0087996   -0.2617574    0.0551041   -0.4911921   -0.4384544    0.7526540
   0.0093495   -0.2619540    0.0553565   -0.4762738   -0.4211761    0.7718640
   0.0094952   -0.2610617    0.0559156   -0.4737271   -0.4207305    0.7736721
   0.0071273   -0.2612082    0.0496777   -0.6764203   -0.0422692   -0.7353019
   0.0065524   -0.2617003    0.0502498   -0.7831962   -0.0151479   -0.6215901
   0.0063377   -0.2614042    0.0505299   -0.8056454   -0.0921747   -0.5851832
   0.0064739   -0.2620195    0.0518361   -0.8360608   -0.5224665    0.1674249
   0.0057749   -0.2607395    0.0526901   -0.7755032   -0.5910495    0.2219353
   0.0056557   -0.2607802    0.0522472   -0.7657812   -0.6247784    0.1524177
   0.0056456   -0.2607480    0.0515084   -0.8843105   -0.3270394   -0.3332269
   0.0057009   -0.2609352    0.0517058   -0.8484528   -0.5266583   -0.0525246
   0.0060968   -0.2611800    0.0508441   -0.8536279   -0.1980234   -0.4817739
   0.0060517   -0.2607663    0.0532961   -0.7206391   -0.5978649    0.3510511
   0.0065406   -0.2602425    0.0547347   -0.4969477   -0.6370020    0.5892973
   0.0061941   -0.2605259    0.0539418   -0.6337363   -0.6865066    0.3564925
   0.0085323   -0.2613024    0.0552385   -0.4437839   -0.4866965    0.7524509
   0.0064854   -0.2620303    0.0518555   -0.8438093   -0.5178757    0.1406793
   0.0155244   -0.2612870    0.0483583    0.8837928    0.2605514   -0.3886171
   0.0147517   -0.2607734    0.0477280    0.2953045    0.4687623   -0.8325006
   0.0144928   -0.2603835    0.0478959    0.0763768    0.4662416   -0.8813543
   0.0140268   -0.2602315    0.0480643   -0.2829689    0.3388859   -0.8972652
   0.0139243   -0.2596991    0.0482603   -0.3352896    0.2763020   -0.9006876
   0.0124171   -0.2603335    0.0488113   -0.4001090    0.2245703   -0.8885274
   0.0128796   -0.2598610    0.0487288   -0.3899259    0.1851756   -0.9020353
   0.0130314   -0.2595150    0.0487231   -0.3911853    0.1850312   -0.9015196
   0.0147958   -0.2604657    0.0479616    0.4627802    0.4673361   -0.7532805
   0.0149288   -0.2603038    0.0481465    0.5623984    0.3827871   -0.7329271
   0.0153267   -0.2603390    0.0485468    0.8070826    0.2473401   -0.5361348
   0.0153934   -0.2608741    0.0483847    0.8532525    0.2682942   -0.4471894
   0.0064368   -0.2599146    0.0501611   -0.7173489   -0.1055865   -0.6886669
   0.0063035   -0.2591611    0.0501559   -0.6733580   -0.0758673   -0.7354136
   0.0122093   -0.2606391    0.0488628   -0.2033409    0.4148965   -0.8868559
   0.0117456   -0.2603471    0.0489250    0.0862981    0.3878314   -0.9176816
   0.0111010   -0.2601916    0.0489290    0.0914722    0.4865602   -0.8688452
   0.0112828   -0.2600854    0.0490076    0.0512084    0.3564253   -0.9329194
   0.0103020   -0.2590315    0.0494173   -0.0030780    0.4833685   -0.8754116
   0.0106440   -0.2595233    0.0491789    0.1760220    0.4959157   -0.8503434
   0.0100411   -0.2587145    0.0496419   -0.1043313    0.4653290   -0.8789675
   0.0098892   -0.2585054    0.0497544   -0.1278020    0.3162377   -0.9400321
   0.0094241   -0.2580959    0.0497335    0.3661745    0.0941280   -0.9257733
   0.0097826   -0.2583207    0.0498062   -0.1542740   -0.0091859   -0.9879854
   0.0097121   -0.2580994    0.0497675    0.0342045   -0.1734546   -0.9842477
   0.0089350   -0.2573391    0.0496863   -0.1533536    0.1963226   -0.9684731
   0.0088098   -0.2568489    0.0498972   -0.3415375    0.4409744   -0.8299962
   0.0073679   -0.2576515    0.0499323   -0.2869558    0.4289421   -0.8565425
   0.0074648   -0.2570275    0.0502374   -0.2429022    0.4783144   -0.8439276
   0.0078083   -0.2572528    0.0500170   -0.2619326    0.5167987   -0.8150524
   0.0065493   -0.2586326    0.0499647   -0.5427511    0.1294394   -0.8298595
   0.0068472   -0.2575738    0.0501103   -0.3665629    0.3768291   -0.8506653
   0.0093384   -0.2577870    0.0496578    0.1250390   -0.1434628   -0.9817248
   0.0094607   -0.2575026    0.0495834   -0.1102135   -0.0979449   -0.9890702
   0.0109745   -0.2595713    0.0491714   -0.0629868    0.3091059   -0.9489395
   0.0154060   -0.2599642    0.0547286    0.9563723    0.2486839    0.1533246
   0.0151425   -0.2595496    0.0562818    0.9743159    0.1407842    0.1757509
   0.0153488   -0.2600245    0.0554293    0.9729597    0.2003900    0.1148622
   0.0156396   -0.2593039    0.0531308    0.9330559    0.2858447    0.2184021
   0.0156201   -0.2589535    0.0527217    0.9462267    0.2802256    0.1616434
   0.0155374   -0.2596602    0.0539046    0.8960544    0.3477123    0.2760122
   0.0153252   -0.2597050    0.0488189    0.8177814    0.2974384   -0.4927109
   0.0155065   -0.2596221    0.0493142    0.8993012    0.3157571   -0.3025804
   0.0157384   -0.2596040    0.0505190    0.9459056    0.3038045   -0.1138657
   0.0158092   -0.2597865    0.0507243    0.9670719    0.2398618   -0.0850784
   0.0153835   -0.2587312    0.0502233    0.8572308    0.4694408   -0.2116143
   0.0155674   -0.2587423    0.0517769    0.9430532    0.3275838   -0.0577883
   0.0155896   -0.2587532    0.0525397    0.9394739    0.3342749    0.0751599
   0.0151485   -0.2597593    0.0564505    0.9743973    0.1337984    0.1806873
   0.0150776   -0.2608522    0.0568487    0.9256231   -0.1146668    0.3606570
   0.0150122   -0.2598532    0.0571064    0.9424513    0.0545141    0.3298693
   0.0143477   -0.2623785    0.0570981    0.6949387   -0.4058643    0.5935776
   0.0147026   -0.2614108    0.0573768    0.7980518   -0.3324567    0.5025791
   0.0132158   -0.2624832    0.0575479   -0.1038298   -0.5353788    0.8382058
   0.0128081   -0.2626793    0.0573332   -0.2703200   -0.4461361    0.8531645
   0.0136808   -0.2626621    0.0574006    0.0910445   -0.5317774    0.8419760
   0.0134476   -0.2627674    0.0573499    0.0501635   -0.4211610    0.9055976
   0.0138865   -0.2625026    0.0574598    0.3392315   -0.5885583    0.7338400
   0.0140744   -0.2626089    0.0572091    0.6001109   -0.4562810    0.6570194
   0.0115413   -0.2619066    0.0568424   -0.5186316   -0.4064022    0.7522357
   0.0106529   -0.2606131    0.0569156   -0.5068473   -0.4036908    0.7616689
   0.0122409   -0.2611128    0.0577161   -0.4879214   -0.4107983    0.7701801
   0.0115713   -0.2611154    0.0572827   -0.5184619   -0.4061433    0.7524925
   0.0131605   -0.2620284    0.0578471   -0.2326957   -0.5408594    0.8082845
   0.0131060   -0.2615256    0.0581105   -0.3122646   -0.4103824    0.8567830
   0.0084635   -0.2603604    0.0557412   -0.3881774   -0.4983171    0.7752409
   0.0089232   -0.2607633    0.0557671   -0.4282360   -0.4409858    0.7887620
   0.0094400   -0.2600394    0.0564760   -0.4277723   -0.4786380    0.7667572
   0.0092358   -0.2604893    0.0560914   -0.4347904   -0.4520050    0.7788766
   0.0097891   -0.2599522    0.0567203   -0.4579050   -0.4755136    0.7511390
   0.0056911   -0.2603035    0.0512039   -0.8106812   -0.1893637   -0.5540193
   0.0054503   -0.2604634    0.0525206   -0.7283118   -0.6479057    0.2231145
   0.0052972   -0.2603316    0.0522810   -0.8253959   -0.5645429   -0.0035936
   0.0054321   -0.2602383    0.0516243   -0.8717090   -0.2676497   -0.4104718
   0.0054375   -0.2604482    0.0517927   -0.8884100   -0.3842044   -0.2512263
   0.0050841   -0.2600351    0.0525619   -0.7860521   -0.6120783    0.0864997
   0.0076000   -0.2601343    0.0554799   -0.3874876   -0.5672353    0.7267032
   0.0068581   -0.2594316    0.0557286   -0.3217300   -0.6339772    0.7032515
   0.0062238   -0.2595417    0.0553121   -0.4074827   -0.6753947    0.6146542
   0.0054181   -0.2592837    0.0549267   -0.4833429   -0.7112212    0.5104351
   0.0052135   -0.2594941    0.0543675   -0.5554070   -0.7314900    0.3955318
   0.0049305   -0.2598068    0.0529497   -0.6841583   -0.7150359    0.1437048
   0.0048691   -0.2596442    0.0534736   -0.6899504   -0.6935162    0.2073734
   0.0082206   -0.2603589    0.0556293   -0.3680142   -0.5231192    0.7687079
   0.0146964   -0.2602939    0.0480101    0.3121956    0.4383974   -0.8428177
   0.0142334   -0.2600135    0.0480794   -0.0543211    0.3674460   -0.9284571
   0.0141805   -0.2594381    0.0482870   -0.0698925    0.3485737   -0.9346718
   0.0138581   -0.2591273    0.0484598   -0.2329630    0.3336489   -0.9134586
   0.0120354   -0.2603098    0.0489265   -0.1803063    0.1086778   -0.9775882
   0.0123655   -0.2596612    0.0489462   -0.2380800    0.1280419   -0.9627685
   0.0131084   -0.2586706    0.0488382   -0.1832233    0.1373371   -0.9734309
   0.0146430   -0.2597288    0.0482258    0.3011012    0.3871405   -0.8714702
   0.0150147   -0.2595719    0.0485321    0.6274241    0.3583817   -0.6913042
   0.0060139   -0.2588954    0.0503941   -0.7149632   -0.1121790   -0.6901040
   0.0062489   -0.2583722    0.0501965   -0.5686411    0.1220655   -0.8134785
   0.0118415   -0.2602666    0.0489466   -0.0528385    0.1674928   -0.9844563
   0.0114888   -0.2598906    0.0490405   -0.1042370    0.1888507   -0.9764579
   0.0104746   -0.2588710    0.0494489   -0.2450749    0.2780546   -0.9287755
   0.0102494   -0.2584332    0.0496073   -0.3543301    0.0447919   -0.9340470
   0.0101662   -0.2582781    0.0496397   -0.3601567   -0.1084841   -0.9265627
   0.0098710   -0.2581412    0.0497444   -0.3034630   -0.2120643   -0.9289451
   0.0099012   -0.2575606    0.0495794   -0.1291511   -0.2039123   -0.9704328
   0.0091919   -0.2570189    0.0496665   -0.3494497    0.1969500   -0.9160216
   0.0086412   -0.2563091    0.0503322   -0.3691205    0.4758479   -0.7983225
   0.0090668   -0.2562396    0.0500732   -0.4864527    0.3315444   -0.8083576
   0.0082880   -0.2568380    0.0501237   -0.2666497    0.5093980   -0.8181758
   0.0074097   -0.2565539    0.0505227   -0.2846282    0.5157349   -0.8080868
   0.0063797   -0.2575443    0.0503706   -0.4642297    0.3913378   -0.7945725
   0.0098172   -0.2569288    0.0494541   -0.2659460   -0.0424070   -0.9630547
   0.0113992   -0.2592552    0.0491688   -0.2119381    0.0505315   -0.9759758
   0.0153089   -0.2593702    0.0541765    0.9236762    0.3512548    0.1531089
   0.0148742   -0.2579686    0.0548053    0.9569208    0.2502197   -0.1472842
   0.0151028   -0.2592686    0.0561834    0.9747148    0.1734500    0.1408765
   0.0149563   -0.2581810    0.0557510    0.9924858    0.1218650    0.0109920
   0.0148746   -0.2593125    0.0572646    0.9265104    0.1610010    0.3400841
   0.0154190   -0.2586496    0.0530106    0.8321203    0.4283313    0.3522898
   0.0153942   -0.2584493    0.0528305    0.8440167    0.4296681    0.3209692
   0.0152270   -0.2586480    0.0533731    0.8114446    0.5036762    0.2964253
   0.0152364   -0.2587651    0.0536392    0.8164966    0.5335377    0.2206147
   0.0150401   -0.2586714    0.0540960    0.8842162    0.4630047    0.0615493
   0.0151634   -0.2591755    0.0489629    0.7373565    0.4272281   -0.5232415
   0.0153366   -0.2589256    0.0496295    0.8628093    0.4358514   -0.2561127
   0.0151752   -0.2588343    0.0493183    0.7755963    0.4979895   -0.3878876
   0.0153669   -0.2584810    0.0508660    0.9044713    0.4121794   -0.1097255
   0.0150210   -0.2583684    0.0497828    0.7538472    0.6035761   -0.2596349
   0.0144655   -0.2577099    0.0500098    0.6823339    0.6370277   -0.3586309
   0.0144391   -0.2575333    0.0501898    0.7713422    0.4914501   -0.4043612
   0.0149058   -0.2576930    0.0510966    0.8193012    0.5433383   -0.1831090
   0.0153523   -0.2582189    0.0519078    0.8632050    0.5036806   -0.0343938
   0.0153526   -0.2582542    0.0526418    0.8256022    0.5502052    0.1251211
   0.0147181   -0.2608253    0.0576014    0.8411876   -0.1273567    0.5255318
   0.0149131   -0.2603752    0.0573231    0.8943647   -0.0412748    0.4454304
   0.0147901   -0.2597728    0.0575472    0.8604596    0.0525464    0.5068019
   0.0140927   -0.2622977    0.0574847    0.6043154   -0.5185354    0.6049165
   0.0144429   -0.2613539    0.0577888    0.7411708   -0.2840869    0.6082437
   0.0142474   -0.2616668    0.0578241    0.6408173   -0.4108232    0.6485194
   0.0134199   -0.2623769    0.0576486    0.0097774   -0.6116732    0.7910501
   0.0138300   -0.2621198    0.0578143    0.2680251   -0.5558373    0.7868973
   0.0136246   -0.2622630    0.0577426    0.0225641   -0.6247550    0.7804948
   0.0109334   -0.2603051    0.0572710   -0.4968359   -0.4656146    0.7323641
   0.0130010   -0.2603702    0.0585208   -0.2735633   -0.3661419    0.8894399
   0.0118346   -0.2607894    0.0576549   -0.5048244   -0.4365191    0.7447170
   0.0116167   -0.2602019    0.0578516   -0.5048988   -0.4500807    0.7365491
   0.0118751   -0.2596527    0.0583594   -0.4368001   -0.4138225    0.7987219
   0.0123356   -0.2600858    0.0584058   -0.3814871   -0.3957230    0.8353867
   0.0133648   -0.2619439    0.0579636   -0.0739493   -0.5151333    0.8539141
   0.0136706   -0.2617281    0.0580715    0.0591791   -0.4997862    0.8641247
   0.0133105   -0.2614341    0.0582215   -0.1595870   -0.4105450    0.8977665
   0.0131349   -0.2610919    0.0582784   -0.2452722   -0.3224888    0.9142442
   0.0087578   -0.2600670    0.0560833   -0.3865567   -0.5031479    0.7729270
   0.0079432   -0.2581298    0.0571628   -0.2785513   -0.5932277    0.7553080
   0.0074991   -0.2596503    0.0558384   -0.3295926   -0.5854993    0.7406479
   0.0089951   -0.2587018    0.0571456   -0.3604624   -0.5456449    0.7565306
   0.0092997   -0.2583053    0.0575959   -0.4246590   -0.5416050    0.7254852
   0.0050513   -0.2587772    0.0515504   -0.8177710   -0.2054574   -0.5376223
   0.0050105   -0.2598535    0.0523550   -0.8812354   -0.4013779   -0.2496395
   0.0052211   -0.2599410    0.0519063   -0.8767562   -0.2827970   -0.3890044
   0.0047933   -0.2595583    0.0526338   -0.8802305   -0.3926921   -0.2664341
   0.0046468   -0.2594454    0.0531180   -0.8326812   -0.5530084   -0.0286991
   0.0066082   -0.2577863    0.0571047   -0.1365262   -0.6758817    0.7242544
   0.0058962   -0.2592027    0.0554578   -0.3688203   -0.7127250    0.5966529
   0.0075355   -0.2582786    0.0569138   -0.2322847   -0.6186573    0.7505378
   0.0049520   -0.2592035    0.0546126   -0.5095361   -0.7711322    0.3817436
   0.0043957   -0.2589898    0.0539446   -0.7872166   -0.5940552    0.1654946
   0.0044464   -0.2591432    0.0534062   -0.8491683   -0.5276189    0.0230521
   0.0140254   -0.2592125    0.0483932   -0.0654405    0.4263733   -0.9021770
   0.0143616   -0.2592665    0.0483800    0.1393869    0.4577299   -0.8780972
   0.0138670   -0.2585830    0.0487456    0.0138764    0.5246344   -0.8512145
   0.0134020   -0.2583914    0.0488833   -0.0317570    0.4109399   -0.9111092
   0.0121092   -0.2591847    0.0490461   -0.1712456    0.0159921   -0.9850986
   0.0126615   -0.2581527    0.0489329   -0.0008196    0.0781324   -0.9969427
   0.0119488   -0.2587408    0.0490025   -0.1049115   -0.1367727   -0.9850314
   0.0127175   -0.2576919    0.0490337    0.1215014    0.2707618   -0.9549479
   0.0147931   -0.2591498    0.0486107    0.4699416    0.4792061   -0.7412937
   0.0058281   -0.2583752    0.0505252   -0.6585590    0.0925705   -0.7468138
   0.0054916   -0.2583431    0.0509013   -0.7358080   -0.0560153   -0.6748695
   0.0115522   -0.2586222    0.0490741   -0.3050691   -0.1910123   -0.9329776
   0.0113439   -0.2582549    0.0490434   -0.4006879   -0.0865510   -0.9121174
   0.0104794   -0.2580583    0.0495226   -0.3051111    0.0244304   -0.9520033
   0.0102074   -0.2575836    0.0495957   -0.2323041   -0.2106472   -0.9495591
   0.0100899   -0.2570223    0.0493915   -0.2188208   -0.1823741   -0.9585704
   0.0098189   -0.2565172    0.0494964   -0.4037463    0.2169628   -0.8887722
   0.0092474   -0.2559109    0.0500526   -0.5566929    0.2806690   -0.7818682
   0.0080912   -0.2555471    0.0510530   -0.3468445    0.4522969   -0.8216608
   0.0075332   -0.2559951    0.0509018   -0.3452234    0.4567667   -0.8198689
   0.0071484   -0.2563105    0.0508022   -0.3136382    0.5453727   -0.7773028
   0.0058562   -0.2570648    0.0509357   -0.6000461    0.3595012   -0.7146353
   0.0059059   -0.2565451    0.0512789   -0.4588528    0.5376398   -0.7073879
   0.0057016   -0.2578946    0.0507415   -0.6562026    0.1936556   -0.7293118
   0.0099513   -0.2567310    0.0494213   -0.2741991    0.0600590   -0.9597957
   0.0147943   -0.2581770    0.0541927    0.8683623    0.4319615   -0.2436310
   0.0145914   -0.2577561    0.0538327    0.9668949    0.0224735   -0.2541835
   0.0145540   -0.2572558    0.0539621    0.9290446    0.2170706   -0.2995938
   0.0146372   -0.2580225    0.0539472    0.9217716    0.1051651   -0.3731988
   0.0145934   -0.2564640    0.0547889    0.9434635    0.2932812   -0.1544756
   0.0148460   -0.2573851    0.0557927    0.9837063    0.1612594   -0.0794819
   0.0149321   -0.2584410    0.0566351    0.9829543    0.0835001    0.1637942
   0.0149661   -0.2581663    0.0561532    0.9947785    0.0888251    0.0502583
   0.0147673   -0.2583070    0.0571383    0.9016078    0.1241440    0.4143569
   0.0144494   -0.2599536    0.0580869    0.7714916    0.0451260    0.6346372
   0.0151229   -0.2583879    0.0532446    0.6861905    0.5192569    0.5094260
   0.0151582   -0.2585849    0.0534299    0.6982398    0.5930903    0.4008804
   0.0150719   -0.2579859    0.0528846    0.7556916    0.5719969    0.3189823
   0.0151649   -0.2586022    0.0534482    0.6926596    0.6797974    0.2410355
   0.0149404   -0.2585034    0.0538731    0.7825714    0.6177633    0.0771399
   0.0148702   -0.2586994    0.0490337    0.5344961    0.5977438   -0.5975084
   0.0147948   -0.2583439    0.0493933    0.6232621    0.6529092   -0.4304114
   0.0138117   -0.2571757    0.0497098    0.5903116    0.5243167   -0.6136971
   0.0144214   -0.2579911    0.0494851    0.5273569    0.6258689   -0.5746153
   0.0145721   -0.2572871    0.0508481    0.8541618    0.4343152   -0.2859685
   0.0135376   -0.2557168    0.0504397    0.6822008    0.3973258   -0.6137868
   0.0139774   -0.2563050    0.0506352    0.8290584    0.3669871   -0.4218799
   0.0143516   -0.2565959    0.0511517    0.8850041    0.3751437   -0.2757442
   0.0148435   -0.2575917    0.0516668    0.8201680    0.5706467    0.0410701
   0.0145353   -0.2571167    0.0510197    0.9033317    0.4108012   -0.1234271
   0.0146228   -0.2573293    0.0519672    0.8518103    0.5229966    0.0298954
   0.0143976   -0.2608351    0.0580244    0.7206535   -0.1639733    0.6736255
   0.0140355   -0.2619195    0.0578442    0.4206993   -0.4892616    0.7639602
   0.0141879   -0.2611848    0.0581113    0.5430793   -0.2841718    0.7901337
   0.0139812   -0.2614349    0.0581204    0.3561548   -0.3691483    0.8584191
   0.0109009   -0.2593063    0.0579187   -0.4735811   -0.4809023    0.7378712
   0.0104673   -0.2587696    0.0580345   -0.4478390   -0.4967176    0.7434460
   0.0100869   -0.2585160    0.0579791   -0.4448830   -0.4877118    0.7511433
   0.0133810   -0.2610501    0.0583532   -0.0994358   -0.2833855    0.9538371
   0.0132055   -0.2602347    0.0585996    0.0053016   -0.2266831    0.9739541
   0.0127428   -0.2599066    0.0586337   -0.1986459   -0.2880114    0.9367973
   0.0120250   -0.2590363    0.0587175   -0.2786882   -0.3624152    0.8893751
   0.0117428   -0.2585250    0.0588376   -0.3242354   -0.2970912    0.8981137
   0.0116176   -0.2591721    0.0584587   -0.4372491   -0.4371512    0.7859466
   0.0124869   -0.2594040    0.0587138   -0.2062417   -0.2738086    0.9394111
   0.0137749   -0.2616525    0.0581047    0.1691886   -0.4647715    0.8691160
   0.0135149   -0.2613053    0.0583054    0.0753131   -0.3297545    0.9410579
   0.0084727   -0.2578159    0.0576134   -0.2952404   -0.5743364    0.7635252
   0.0067561   -0.2572871    0.0575522   -0.1464328   -0.5476101    0.8238207
   0.0093674   -0.2576932    0.0581012   -0.3619677   -0.4311252    0.8265050
   0.0051414   -0.2583152    0.0512706   -0.8007264   -0.0481122   -0.5970950
   0.0047890   -0.2587131    0.0519690   -0.8681409   -0.2481831   -0.4298099
   0.0046194   -0.2581859    0.0521092   -0.8667203   -0.0642823   -0.4946349
   0.0043185   -0.2588432    0.0533158   -0.9156515   -0.3890149   -0.1012412
   0.0043350   -0.2585555    0.0528461   -0.9222320   -0.2387665   -0.3041031
   0.0045557   -0.2586363    0.0524044   -0.8884319   -0.1991143   -0.4135726
   0.0050435   -0.2580149    0.0565821   -0.2917988   -0.7250525    0.6238207
   0.0056784   -0.2574025    0.0573792   -0.0295726   -0.6029359    0.7972413
   0.0052699   -0.2576129    0.0571769   -0.1869493   -0.7007511    0.6884751
   0.0050289   -0.2578786    0.0567215   -0.3190276   -0.7419722    0.5896597
   0.0063481   -0.2574615    0.0573222   -0.0729618   -0.6195745    0.7815395
   0.0055004   -0.2589215    0.0555886   -0.3749336   -0.7952232    0.4764923
   0.0044908   -0.2588501    0.0546251   -0.6970905   -0.6644186    0.2694673
   0.0046562   -0.2589154    0.0548259   -0.5962628   -0.7185161    0.3580576
   0.0042914   -0.2586990    0.0543285   -0.8666050   -0.4670511    0.1756677
   0.0039084   -0.2578031    0.0543435   -0.9320170   -0.3517039    0.0874568
   0.0143313   -0.2588010    0.0486282    0.2486066    0.5709579   -0.7824333
   0.0141114   -0.2580341    0.0492420    0.3318469    0.5865293   -0.7388241
   0.0136071   -0.2582455    0.0489534    0.0940673    0.5194291   -0.8493202
   0.0136443   -0.2574641    0.0493883    0.3433532    0.4456726   -0.8267312
   0.0120486   -0.2581076    0.0489011    0.0527401    0.0432929   -0.9976694
   0.0118550   -0.2584233    0.0489345   -0.1422807   -0.1885986   -0.9716927
   0.0122194   -0.2572914    0.0490768    0.0423442    0.2415513   -0.9694637
   0.0128334   -0.2569250    0.0493414    0.2552857    0.3218109   -0.9117384
   0.0052451   -0.2580606    0.0511633   -0.7327787    0.1361846   -0.6667002
   0.0106490   -0.2577741    0.0494534   -0.4569296   -0.1160461   -0.8819006
   0.0111362   -0.2577037    0.0491305   -0.3802115   -0.0308486   -0.9243850
   0.0117178   -0.2580599    0.0489090   -0.1812920    0.0185847   -0.9832537
   0.0103281   -0.2571005    0.0493416   -0.2911576   -0.1965329   -0.9362703
   0.0107290   -0.2575287    0.0493333   -0.4285590   -0.2717693   -0.8616720
   0.0104162   -0.2569511    0.0493041   -0.2030919   -0.0327435   -0.9786120
   0.0103228   -0.2562909    0.0494101   -0.2500291    0.2326129   -0.9398812
   0.0097620   -0.2559361    0.0497068   -0.4497883    0.2512904   -0.8570552
   0.0094978   -0.2556562    0.0499640   -0.5414160    0.2676905   -0.7970010
   0.0093711   -0.2549329    0.0503127   -0.5722290    0.3272074   -0.7519902
   0.0082732   -0.2542615    0.0516212   -0.4998769    0.3987595   -0.7688393
   0.0075041   -0.2555089    0.0512008   -0.3047310    0.5066942   -0.8064739
   0.0072443   -0.2556502    0.0512229   -0.4808141    0.4349984   -0.7613108
   0.0072988   -0.2556961    0.0511605   -0.5061889    0.3621805   -0.7826865
   0.0053297   -0.2567640    0.0516357   -0.6902465    0.3887261   -0.6102883
   0.0052456   -0.2575620    0.0512952   -0.7260404    0.2143072   -0.6534047
   0.0052040   -0.2574773    0.0513774   -0.7375903    0.2953231   -0.6072437
   0.0062576   -0.2557967    0.0517153   -0.4649585    0.5491811   -0.6944161
   0.0054148   -0.2561910    0.0519695   -0.5405397    0.5427786   -0.6428127
   0.0103310   -0.2567580    0.0493120   -0.1902655    0.0826480   -0.9782476
   0.0149010   -0.2584579    0.0538042    0.7530724    0.6566115   -0.0417517
   0.0146310   -0.2580340    0.0539348    0.9039081    0.3386759   -0.2612445
   0.0145436   -0.2576470    0.0535544    0.9730864    0.2300228   -0.0138677
   0.0145450   -0.2578582    0.0537207    0.9804538    0.1600964   -0.1143657
   0.0143946   -0.2571243    0.0537151    0.8399866    0.3259254   -0.4338147
   0.0143231   -0.2565146    0.0539306    0.8982641    0.1081733   -0.4259343
   0.0143824   -0.2562755    0.0541871    0.9436941    0.2119221   -0.2540285
   0.0145773   -0.2563125    0.0549442    0.9458068    0.2827169   -0.1597516
   0.0143706   -0.2561351    0.0543311    0.9472911    0.2958309   -0.1229785
   0.0144672   -0.2562808    0.0545779    0.9060675    0.3903100   -0.1634007
   0.0146723   -0.2564676    0.0555663    0.9681456    0.2475517   -0.0375794
   0.0147144   -0.2566626    0.0557553    0.9627717    0.2602848    0.0729550
   0.0145866   -0.2562378    0.0554084    0.9499826    0.2906227   -0.1143309
   0.0147823   -0.2570147    0.0561687    0.9634591    0.2471207    0.1033336
   0.0147112   -0.2571239    0.0568175    0.9301121    0.1967648    0.3101211
   0.0143925   -0.2589539    0.0579608    0.7639559    0.1267505    0.6326971
   0.0145532   -0.2582511    0.0575551    0.8335254    0.1505693    0.5315678
   0.0141358   -0.2605891    0.0583024    0.5085042   -0.1457131    0.8486408
   0.0140865   -0.2598372    0.0583752    0.5298005    0.0088271    0.8480763
   0.0147235   -0.2581709    0.0534192    0.7835939    0.4601599    0.4174127
   0.0147416   -0.2579500    0.0532648    0.7799057    0.4026869    0.4791558
   0.0147959   -0.2583511    0.0536265    0.7723568    0.6191297    0.1419273
   0.0149364   -0.2577707    0.0527051    0.7708601    0.6195535    0.1480817
   0.0147143   -0.2576782    0.0530258    0.7612158    0.6081658    0.2251331
   0.0147395   -0.2577390    0.0530982    0.7854151    0.5005962    0.3640421
   0.0141702   -0.2579376    0.0493500    0.4619835    0.5339795   -0.7081222
   0.0131895   -0.2562401    0.0498304    0.5700943    0.4406313   -0.6934238
   0.0142867   -0.2559430    0.0514360    0.8323828    0.2626191   -0.4880268
   0.0123633   -0.2542360    0.0503405    0.4238615    0.4489925   -0.7866049
   0.0132507   -0.2546617    0.0507060    0.5953755    0.3882591   -0.7034080
   0.0136138   -0.2546876    0.0511112    0.7670721    0.3627128   -0.5291879
   0.0143398   -0.2561053    0.0514618    0.8529563    0.2441189   -0.4613801
   0.0143517   -0.2565324    0.0512174    0.9062941    0.2557329   -0.3364992
   0.0144585   -0.2567616    0.0513784    0.9678387    0.2354520   -0.0886035
   0.0145837   -0.2572632    0.0518806    0.8720161    0.4779959    0.1053940
   0.0145029   -0.2569559    0.0515684    0.9348158    0.3437765    0.0890906
   0.0145963   -0.2573765    0.0526856    0.8360031    0.5237873    0.1635413
   0.0144663   -0.2570052    0.0518977    0.9644192    0.2612388    0.0406197
   0.0144083   -0.2568198    0.0520828    0.9836174    0.1455821    0.1063137
   0.0144397   -0.2570198    0.0522652    0.9185134    0.3784777    0.1144013
   0.0137212   -0.2610973    0.0583282    0.1947375   -0.2939666    0.9357676
   0.0136958   -0.2611189    0.0583219    0.1275794   -0.3105195    0.9419666
   0.0111568   -0.2587835    0.0584453   -0.3997760   -0.4293397    0.8098435
   0.0107270   -0.2584403    0.0584105   -0.4318504   -0.4528063    0.7800459
   0.0106960   -0.2583856    0.0584247   -0.3057406   -0.4349792    0.8469449
   0.0101200   -0.2581830    0.0582136   -0.4309547   -0.3769996    0.8198471
   0.0095718   -0.2576114    0.0582189   -0.3433393   -0.3361198    0.8770072
   0.0136697   -0.2604753    0.0584990    0.2697282   -0.1470292    0.9516455
   0.0136193   -0.2597375    0.0585834    0.2644998   -0.0267359    0.9640151
   0.0128334   -0.2595132    0.0587230    0.0398072   -0.1168525    0.9923512
   0.0118759   -0.2585055    0.0588747   -0.2179612   -0.3178140    0.9227606
   0.0122293   -0.2589234    0.0588135   -0.0897758   -0.2514399    0.9637003
   0.0115623   -0.2581155    0.0588543   -0.2888714   -0.0960821    0.9525343
   0.0119723   -0.2584479    0.0589152   -0.0865315   -0.1670432    0.9821450
   0.0118161   -0.2580822    0.0589214   -0.1488537    0.0430276    0.9879227
   0.0126231   -0.2590718    0.0587684    0.1069505   -0.1011536    0.9891054
   0.0079849   -0.2570798    0.0579290   -0.2183656   -0.3332322    0.9172092
   0.0084985   -0.2574919    0.0578670   -0.2838705   -0.4290106    0.8575357
   0.0071535   -0.2565852    0.0579507   -0.0886351   -0.3441066    0.9347376
   0.0070224   -0.2565771    0.0579422    0.0051151   -0.2498452    0.9682723
   0.0074497   -0.2565969    0.0579766   -0.0940046   -0.2431603    0.9654202
   0.0064962   -0.2569587    0.0577662   -0.0489417   -0.5232411    0.8507781
   0.0091112   -0.2571879    0.0581795   -0.2500341   -0.2232726    0.9421424
   0.0094271   -0.2573146    0.0582554   -0.2904715   -0.1327415    0.9476318
   0.0047989   -0.2576854    0.0518807   -0.8100358    0.1777653   -0.5587857
   0.0045249   -0.2576265    0.0522924   -0.8663066    0.1246482   -0.4837104
   0.0044484   -0.2578710    0.0524143   -0.9125686    0.0414914   -0.4068132
   0.0040135   -0.2581289    0.0536332   -0.9593555   -0.2477088   -0.1351942
   0.0041795   -0.2580204    0.0529953   -0.9227463    0.0091323   -0.3852997
   0.0039030   -0.2575763    0.0538072   -0.9676095   -0.0129859   -0.2521175
   0.0049214   -0.2580355    0.0564890   -0.4361199   -0.6729551    0.5974370
   0.0048645   -0.2576563    0.0568464   -0.5651393   -0.5777014    0.5889641
   0.0052137   -0.2571978    0.0575072    0.0384838   -0.6090252    0.7922167
   0.0056233   -0.2569541    0.0576832   -0.0490734   -0.5389780    0.8408891
   0.0050671   -0.2576600    0.0570303   -0.4301538   -0.6597945    0.6161484
   0.0050108   -0.2572544    0.0573675    0.3121983   -0.6371613    0.7046685
   0.0049627   -0.2576610    0.0569388   -0.6011250   -0.5575060    0.5725695
   0.0047760   -0.2584071    0.0559440   -0.4759770   -0.7211539    0.5033716
   0.0045707   -0.2587721    0.0549639   -0.6069834   -0.7318464    0.3097934
   0.0046604   -0.2584797    0.0556641   -0.4788284   -0.7826388    0.3977434
   0.0046326   -0.2586648    0.0553126   -0.5521533   -0.7413016    0.3815740
   0.0042944   -0.2584696    0.0548570   -0.8164834   -0.5183178    0.2543648
   0.0041521   -0.2581950    0.0547388   -0.9065757   -0.3637645    0.2139997
   0.0038206   -0.2574915    0.0542696   -0.9929829   -0.1142147   -0.0306577
   0.0038595   -0.2574486    0.0547053   -0.9459421   -0.2506413    0.2058457
   0.0125239   -0.2558484    0.0496318    0.3049301    0.3351553   -0.8914531
   0.0124708   -0.2552702    0.0498374    0.3652462    0.4195331   -0.8310158
   0.0118209   -0.2576486    0.0489636   -0.0960291    0.1902061   -0.9770364
   0.0109395   -0.2573183    0.0491929   -0.1727284    0.1304155   -0.9762974
   0.0108798   -0.2572020    0.0492123   -0.1685096    0.0537600   -0.9842329
   0.0108298   -0.2564575    0.0492914   -0.1063752    0.1735538   -0.9790625
   0.0120632   -0.2554534    0.0496131    0.2098689    0.3402580   -0.9166131
   0.0109839   -0.2556412    0.0494960   -0.0365837    0.2824830   -0.9585745
   0.0108226   -0.2572771    0.0492208   -0.3000923   -0.0649560   -0.9516960
   0.0101228   -0.2551773    0.0497698   -0.2367226    0.3300779   -0.9137894
   0.0098474   -0.2555050    0.0497793   -0.4331106    0.2652499   -0.8614277
   0.0097934   -0.2549654    0.0500134   -0.4167607    0.3666908   -0.8317742
   0.0094972   -0.2536820    0.0508571   -0.5583972    0.4106126   -0.7208259
   0.0098888   -0.2542893    0.0502759   -0.3436533    0.4196685   -0.8401076
   0.0077695   -0.2543112    0.0519103   -0.3991905    0.4829938   -0.7793356
   0.0075306   -0.2540243    0.0521771   -0.4733221    0.3556982   -0.8058815
   0.0081850   -0.2533557    0.0521844   -0.5175523    0.4736850   -0.7125743
   0.0074885   -0.2535222    0.0524529   -0.4071783    0.4898234   -0.7708948
   0.0070949   -0.2554058    0.0514576   -0.4102796    0.4997005   -0.7628696
   0.0066176   -0.2555062    0.0516777   -0.4899940    0.4954548   -0.7172380
   0.0050580   -0.2561671    0.0523344   -0.6924255    0.4740978   -0.5438549
   0.0045351   -0.2569413    0.0526195   -0.8370586    0.2908543   -0.4633969
   0.0060986   -0.2555108    0.0520528   -0.5184237    0.5534801   -0.6518410
   0.0145061   -0.2574506    0.0533678    0.8923680    0.4277203    0.1439957
   0.0143842   -0.2571148    0.0537006    0.8801335    0.4055462   -0.2467738
   0.0142247   -0.2567128    0.0537122    0.9056242    0.1595058   -0.3929410
   0.0142954   -0.2562679    0.0537986    0.9901711   -0.0420590   -0.1333875
   0.0142244   -0.2563713    0.0536811    0.9385177   -0.1842160   -0.2919744
   0.0142888   -0.2559580    0.0541190    0.9924000    0.0975386   -0.0750232
   0.0143396   -0.2557605    0.0547158    0.9493368    0.2830525   -0.1365321
   0.0143463   -0.2559339    0.0545363    0.9513028    0.2462706   -0.1854018
   0.0142888   -0.2559580    0.0541190    0.9937282    0.1117509    0.0039898
   0.0142318   -0.2555950    0.0544888    0.9900393    0.1286431   -0.0572120
   0.0143747   -0.2558202    0.0562009    0.9243502    0.3457235    0.1614063
   0.0144884   -0.2559467    0.0556983    0.9369450    0.3489314    0.0195166
   0.0144044   -0.2560191    0.0563838    0.9168796    0.3353839    0.2164475
   0.0141498   -0.2552414    0.0548448    0.9199765    0.3865215   -0.0651484
   0.0144620   -0.2564190    0.0567470    0.8915875    0.3441697    0.2943109
   0.0144918   -0.2570409    0.0572610    0.8371938    0.2356573    0.4935303
   0.0143550   -0.2577347    0.0576799    0.7628378    0.1742457    0.6226692
   0.0142262   -0.2582123    0.0579381    0.6200764    0.2221882    0.7524212
   0.0139383   -0.2591826    0.0584361    0.5125214    0.1338930    0.8481713
   0.0144536   -0.2573642    0.0532523    0.8422661    0.5353697    0.0629841
   0.0144406   -0.2561712    0.0516040    0.9198184    0.1154495   -0.3749739
   0.0144800   -0.2560635    0.0517210    0.9216764    0.1034413   -0.3739152
   0.0144323   -0.2554920    0.0519224    0.8500034    0.2676766   -0.4536998
   0.0144869   -0.2556548    0.0519458    0.8619997    0.2303458   -0.4515499
   0.0127696   -0.2541405    0.0506311    0.4917661    0.4914302   -0.7187923
   0.0124331   -0.2539637    0.0505550    0.3371768    0.5537633   -0.7613527
   0.0118803   -0.2542855    0.0501503    0.2034076    0.5073394   -0.8373960
   0.0115861   -0.2531114    0.0508780    0.1857301    0.6553669   -0.7321192
   0.0129913   -0.2541685    0.0507992    0.5929055    0.4980877   -0.6327493
   0.0133205   -0.2536997    0.0514871    0.6576158    0.5273321   -0.5380170
   0.0137393   -0.2541878    0.0516462    0.7960332    0.4396273   -0.4160036
   0.0140714   -0.2543703    0.0522697    0.8429612    0.4568583   -0.2840721
   0.0144969   -0.2551608    0.0522749    0.8578178    0.3549026   -0.3717429
   0.0144456   -0.2565475    0.0515995    0.9938172    0.0049647   -0.1109177
   0.0144339   -0.2567536    0.0517700    0.9947755    0.0975362    0.0301391
   0.0144652   -0.2571377    0.0525313    0.9342174    0.3521054    0.0570928
   0.0143513   -0.2568818    0.0527825    0.9369707    0.2467232    0.2474137
   0.0143694   -0.2570860    0.0529584    0.8704553    0.4160688    0.2630483
   0.0144411   -0.2565943    0.0519356    0.9900401   -0.1273543    0.0600127
   0.0143749   -0.2568238    0.0524599    0.9903037    0.1226602    0.0652147
   0.0144042   -0.2564349    0.0524821    0.9620492   -0.2318756    0.1438577
   0.0108997   -0.2583208    0.0585564    0.5550330   -0.3766217    0.7416835
   0.0111030   -0.2582446    0.0586811   -0.0674820   -0.3734092    0.9252090
   0.0108997   -0.2583208    0.0585564    0.9437565   -0.1119510    0.3111118
   0.0106884   -0.2578785    0.0586031   -0.2413275   -0.1957116    0.9505041
   0.0102360   -0.2579546    0.0583789   -0.4052772   -0.3037738    0.8622482
   0.0096696   -0.2572693    0.0583336   -0.2603770   -0.0544963    0.9639678
   0.0100684   -0.2576083    0.0584189   -0.3595793   -0.1378458    0.9228766
   0.0134827   -0.2589882    0.0585795    0.3675211    0.1855182    0.9113239
   0.0130110   -0.2591803    0.0587049    0.2344981    0.0573798    0.9704217
   0.0123603   -0.2585750    0.0588651    0.1860887   -0.0649027    0.9803870
   0.0110909   -0.2582208    0.0586846   -0.3264216   -0.1824695    0.9274448
   0.0115135   -0.2579584    0.0588248   -0.1967843    0.0175101    0.9802904
   0.0117418   -0.2577853    0.0588345   -0.0600594    0.2901817    0.9550850
   0.0121432   -0.2581266    0.0589172    0.1171872    0.1231334    0.9854468
   0.0124908   -0.2586340    0.0588207    0.3046866    0.0265626    0.9520822
   0.0084445   -0.2569407    0.0580942   -0.2075277   -0.2585003    0.9434564
   0.0082652   -0.2565541    0.0581255   -0.1976721   -0.0679320    0.9779115
   0.0075701   -0.2562036    0.0580145   -0.0687200    0.0129023    0.9975526
