NORM_ASCII
2925 5846
3 867 1022 1023 
3 867 1024 1021 
3 867 868 1022 
3 1023 1024 867 
3 868 869 1022 
3 869 1025 1022 
3 869 871 1026 
3 869 1026 1025 
3 870 1026 871 
3 870 1027 1026 
3 1028 870 873 
3 1028 1027 870 
3 1028 873 906 
3 874 1029 878 
3 1013 1029 874 
3 875 1013 874 
3 1030 877 876 
3 876 1031 1030 
3 1031 876 878 
3 882 880 877 
3 882 877 1030 
3 1032 1031 878 
3 1033 1032 878 
3 1034 1033 878 
3 1034 878 1035 
3 878 1029 1036 
3 1036 1035 878 
3 882 887 879 
3 879 880 882 
3 881 1037 885 
3 1037 881 1038 
3 881 1030 1039 
3 1038 881 1039 
3 1030 881 882 
3 923 884 885 
3 923 885 1037 
3 1009 1040 889 
3 1040 1041 889 
3 890 889 1041 
3 1042 890 1041 
3 1043 890 1042 
3 1044 891 890 
3 1043 1045 890 
3 890 1045 1044 
3 891 1044 892 
3 892 1044 1046 
3 1046 912 892 
3 893 1047 894 
3 902 1047 893 
3 1048 894 1047 
3 894 1048 895 
3 895 1049 1050 
3 1048 1049 895 
3 1050 1051 895 
3 895 1051 1052 
3 896 895 1052 
3 897 896 1052 
3 903 897 1052 
3 898 1053 899 
3 1054 898 900 
3 1053 898 1054 
3 899 1053 1055 
3 899 1055 901 
3 1056 900 911 
3 1054 900 1056 
3 1055 902 901 
3 1055 1057 902 
3 1057 1047 902 
3 1052 907 903 
3 908 1058 904 
3 905 904 1059 
3 1059 904 1058 
3 1027 906 905 
3 905 1060 1027 
3 905 1059 1061 
3 1061 1062 905 
3 1060 905 1062 
3 906 1027 1028 
3 1063 907 1064 
3 1063 908 907 
3 1052 1064 907 
3 908 1063 1058 
3 910 909 1046 
3 1046 909 912 
3 911 910 1065 
3 910 1066 1067 
3 1068 910 1067 
3 1066 910 1045 
3 910 1046 1045 
3 910 1068 1069 
3 1065 910 1069 
3 1056 911 1065 
3 913 917 1070 
3 1071 914 913 
3 913 1072 1073 
3 1073 1071 913 
3 913 1074 1072 
3 1070 1074 913 
3 914 1071 915 
3 916 915 1075 
3 1071 1075 915 
3 916 1075 1076 
3 1076 1077 916 
3 1077 949 916 
3 917 918 1078 
3 1078 1070 917 
3 1079 1078 918 
3 1079 918 1080 
3 1080 918 919 
3 920 1081 919 
3 1080 919 1081 
3 1082 920 921 
3 1083 1084 920 
3 1084 1081 920 
3 1082 1085 920 
3 1085 1083 920 
3 1082 921 1086 
3 921 922 1086 
3 922 923 1087 
3 1087 1086 922 
3 1087 923 1088 
3 1088 923 1037 
3 924 938 926 
3 927 939 929 
3 928 929 1089 
3 1089 1090 928 
3 1091 928 1090 
3 928 1091 937 
3 939 1092 929 
3 929 1092 1093 
3 929 1094 1089 
3 1093 1094 929 
3 984 931 1095 
3 931 984 983 
3 938 931 983 
3 931 934 1095 
3 935 932 936 
3 933 1096 934 
3 1097 933 1098 
3 933 935 1098 
3 933 1099 1096 
3 1097 1099 933 
3 1095 934 1096 
3 937 1100 935 
3 936 937 935 
3 935 1101 1098 
3 935 1100 1101 
3 1091 1102 937 
3 937 1102 1103 
3 937 1103 1100 
3 940 1104 939 
3 1092 939 1104 
3 1105 940 1106 
3 1107 1104 940 
3 1107 940 1105 
3 1106 940 941 
3 1106 941 942 
3 942 1105 1106 
3 942 1108 1109 
3 942 943 1108 
3 1105 942 1109 
3 1110 1111 943 
3 943 1112 1108 
3 1111 1113 943 
3 1113 1112 943 
3 1110 943 945 
3 1110 945 944 
3 944 946 1110 
3 1110 946 956 
3 947 1114 1115 
3 947 952 955 
3 1115 952 947 
3 948 1114 947 
3 948 1116 1117 
3 948 1117 1118 
3 1116 948 1119 
3 948 1118 1114 
3 1119 948 949 
3 1077 1119 949 
3 1120 956 951 
3 1120 951 954 
3 952 1121 953 
3 1122 1123 952 
3 952 1123 1121 
3 1115 1124 952 
3 952 1124 1122 
3 1125 954 953 
3 953 1121 1125 
3 1125 1126 954 
3 1126 1127 954 
3 954 1127 1120 
3 956 1128 1110 
3 1120 1128 956 
3 957 968 958 
3 958 1129 988 
3 958 968 1129 
3 975 959 978 
3 961 959 975 
3 959 961 960 
3 1130 962 961 
3 1130 961 975 
3 1130 963 962 
3 963 1130 1131 
3 963 1131 964 
3 964 976 1132 
3 964 1130 976 
3 964 1131 1130 
3 964 1133 1134 
3 964 1135 966 
3 1134 1135 964 
3 1133 964 1132 
3 965 967 1136 
3 965 1136 968 
3 1136 967 966 
3 1137 1136 966 
3 1137 966 1135 
3 968 1136 1129 
3 971 1138 969 
3 969 1138 973 
3 982 971 970 
3 970 972 982 
3 1138 971 1139 
3 982 1140 971 
3 1140 1139 971 
3 980 982 972 
3 973 1138 1141 
3 1142 973 1141 
3 973 1142 974 
3 974 1143 1144 
3 974 1145 1143 
3 974 1142 1146 
3 1146 1145 974 
3 974 1144 1147 
3 1147 976 974 
3 975 978 977 
3 975 976 1130 
3 1147 1148 976 
3 976 1148 1132 
3 979 984 981 
3 984 1095 981 
3 981 1099 1149 
3 1150 1151 981 
3 981 1149 1152 
3 1152 1150 981 
3 1095 1099 981 
3 981 1151 982 
3 1151 1153 982 
3 982 1153 1140 
3 989 1154 985 
3 1155 987 985 
3 985 1154 1155 
3 990 986 1156 
3 1157 986 1158 
3 986 1159 1160 
3 987 1158 986 
3 986 1157 1159 
3 986 1160 1156 
3 987 1155 1161 
3 987 1161 1158 
3 1129 1162 988 
3 988 1163 1164 
3 1162 1163 988 
3 988 1164 989 
3 989 1164 1154 
3 991 990 1156 
3 1165 993 991 
3 1156 1166 991 
3 991 1166 1165 
3 1167 994 993 
3 1168 1167 993 
3 1165 1168 993 
3 997 994 1167 
3 994 997 996 
3 1169 998 997 
3 997 1167 1168 
3 1168 1170 997 
3 997 1171 1169 
3 997 1170 1171 
3 1169 1172 998 
3 998 1173 1001 
3 1172 1173 998 
3 999 1000 1173 
3 1173 1006 999 
3 1006 1002 999 
3 1000 1001 1173 
3 1005 1008 1003 
3 1010 1005 1004 
3 1004 1007 1174 
3 1010 1004 1174 
3 1006 1173 1175 
3 1176 1177 1006 
3 1176 1006 1175 
3 1006 1177 1007 
3 1007 1178 1179 
3 1007 1177 1178 
3 1174 1007 1180 
3 1007 1179 1180 
3 1009 1012 1042 
3 1042 1181 1009 
3 1040 1009 1181 
3 1010 1182 1011 
3 1042 1182 1010 
3 1010 1174 1042 
3 1011 1182 1012 
3 1042 1012 1182 
3 1029 1013 1183 
3 1184 1183 1013 
3 1184 1013 1015 
3 1014 1185 1015 
3 1014 1016 1185 
3 1015 1186 1184 
3 1186 1015 1187 
3 1188 1015 1185 
3 1015 1188 1187 
3 1016 1017 1018 
3 1018 1189 1016 
3 1189 1185 1016 
3 1189 1018 1190 
3 1190 1018 1019 
3 1191 1019 1020 
3 1191 1190 1019 
3 1021 1192 1020 
3 1192 1191 1020 
3 1021 1023 1193 
3 1024 1023 1021 
3 1192 1021 1193 
3 1022 1194 1023 
3 1022 1025 1194 
3 1194 1193 1023 
3 1195 1194 1025 
3 1060 1195 1025 
3 1060 1025 1026 
3 1027 1060 1026 
3 1183 1036 1029 
3 1039 1030 1196 
3 1031 1032 1030 
3 1197 1196 1030 
3 1197 1030 1198 
3 1032 1033 1030 
3 1198 1030 1033 
3 1033 1034 1198 
3 1199 1198 1034 
3 1200 1199 1034 
3 1034 1035 1036 
3 1201 1034 1036 
3 1200 1034 1201 
3 1036 1183 1201 
3 1037 1202 1088 
3 1038 1202 1037 
3 1039 1203 1038 
3 1203 1202 1038 
3 1203 1039 1204 
3 1196 1205 1039 
3 1205 1204 1039 
3 1041 1040 1181 
3 1041 1181 1042 
3 1174 1206 1042 
3 1042 1206 1207 
3 1207 1066 1042 
3 1043 1042 1066 
3 1045 1043 1066 
3 1046 1044 1045 
3 1047 1057 1208 
3 1047 1208 1048 
3 1208 1054 1048 
3 1048 1056 1065 
3 1065 1049 1048 
3 1048 1054 1056 
3 1049 1209 1050 
3 1209 1049 1065 
3 1210 1211 1050 
3 1212 1050 1209 
3 1212 1210 1050 
3 1213 1051 1050 
3 1050 1211 1214 
3 1213 1050 1214 
3 1215 1051 1213 
3 1051 1215 1052 
3 1052 1215 1214 
3 1052 1216 1217 
3 1064 1052 1217 
3 1052 1214 1216 
3 1055 1053 1057 
3 1053 1054 1057 
3 1057 1054 1208 
3 1063 1218 1058 
3 1059 1058 1218 
3 1061 1059 1218 
3 1195 1060 1219 
3 1062 1219 1060 
3 1061 1220 1221 
3 1220 1061 1218 
3 1061 1221 1062 
3 1062 1221 1219 
3 1064 1220 1063 
3 1218 1063 1220 
3 1064 1217 1222 
3 1220 1064 1222 
3 1065 1223 1209 
3 1065 1069 1223 
3 1207 1067 1066 
3 1067 1224 1068 
3 1225 1067 1226 
3 1067 1207 1226 
3 1227 1224 1067 
3 1225 1227 1067 
3 1228 1068 1224 
3 1069 1068 1223 
3 1068 1228 1223 
3 1074 1070 1078 
3 1229 1230 1071 
3 1230 1075 1071 
3 1229 1071 1073 
3 1072 1231 1073 
3 1074 1231 1072 
3 1073 1231 1229 
3 1078 1232 1074 
3 1233 1077 1074 
3 1074 1076 1231 
3 1074 1232 1233 
3 1076 1074 1077 
3 1075 1230 1076 
3 1231 1076 1230 
3 1234 1077 1235 
3 1077 1236 1235 
3 1077 1237 1236 
3 1077 1233 1237 
3 1077 1234 1119 
3 1238 1078 1239 
3 1238 1232 1078 
3 1239 1078 1079 
3 1240 1241 1079 
3 1079 1241 1239 
3 1080 1240 1079 
3 1080 1242 1243 
3 1080 1243 1240 
3 1081 1084 1080 
3 1084 1242 1080 
3 1244 1082 1087 
3 1245 1085 1082 
3 1082 1086 1087 
3 1244 1245 1082 
3 1246 1084 1083 
3 1247 1246 1083 
3 1083 1085 1247 
3 1084 1246 1242 
3 1245 1247 1085 
3 1087 1248 1244 
3 1088 1249 1087 
3 1087 1249 1248 
3 1088 1250 1251 
3 1251 1249 1088 
3 1252 1250 1088 
3 1252 1088 1202 
3 1253 1089 1094 
3 1253 1090 1089 
3 1090 1254 1255 
3 1090 1253 1256 
3 1257 1254 1090 
3 1090 1256 1257 
3 1090 1255 1091 
3 1255 1102 1091 
3 1092 1104 1258 
3 1092 1259 1093 
3 1258 1259 1092 
3 1093 1260 1261 
3 1261 1262 1093 
3 1093 1262 1094 
3 1093 1259 1260 
3 1094 1263 1264 
3 1094 1265 1263 
3 1094 1266 1267 
3 1264 1266 1094 
3 1094 1262 1265 
3 1253 1094 1267 
3 1095 1096 1099 
3 1268 1099 1097 
3 1098 1269 1097 
3 1268 1097 1270 
3 1271 1270 1097 
3 1097 1269 1271 
3 1098 1101 1269 
3 1149 1099 1268 
3 1103 1101 1100 
3 1269 1101 1103 
3 1272 1102 1273 
3 1103 1102 1274 
3 1102 1272 1274 
3 1102 1255 1275 
3 1102 1275 1273 
3 1103 1274 1269 
3 1107 1258 1104 
3 1105 1276 1107 
3 1109 1276 1105 
3 1107 1277 1258 
3 1278 1277 1107 
3 1107 1276 1278 
3 1109 1108 1279 
3 1279 1108 1112 
3 1278 1276 1109 
3 1109 1279 1278 
3 1128 1111 1110 
3 1280 1281 1111 
3 1281 1113 1111 
3 1282 1280 1111 
3 1111 1128 1282 
3 1283 1279 1112 
3 1281 1283 1112 
3 1281 1112 1113 
3 1114 1284 1115 
3 1114 1285 1286 
3 1118 1285 1114 
3 1286 1284 1114 
3 1284 1124 1115 
3 1287 1117 1116 
3 1116 1119 1287 
3 1288 1117 1287 
3 1288 1118 1117 
3 1285 1118 1288 
3 1287 1119 1234 
3 1127 1128 1120 
3 1126 1125 1121 
3 1123 1126 1121 
3 1123 1122 1289 
3 1290 1289 1122 
3 1124 1290 1122 
3 1291 1126 1123 
3 1291 1123 1289 
3 1290 1124 1289 
3 1292 1289 1124 
3 1284 1292 1124 
3 1126 1293 1294 
3 1295 1282 1126 
3 1295 1126 1294 
3 1126 1296 1293 
3 1291 1296 1126 
3 1126 1282 1127 
3 1128 1127 1282 
3 1136 1137 1129 
3 1162 1129 1297 
3 1129 1137 1297 
3 1132 1298 1299 
3 1132 1299 1300 
3 1132 1300 1301 
3 1148 1298 1132 
3 1301 1133 1132 
3 1134 1133 1302 
3 1133 1301 1302 
3 1137 1135 1134 
3 1134 1302 1297 
3 1297 1137 1134 
3 1139 1303 1138 
3 1138 1303 1141 
3 1139 1140 1304 
3 1305 1139 1306 
3 1304 1306 1139 
3 1303 1139 1305 
3 1140 1153 1304 
3 1141 1305 1307 
3 1307 1308 1141 
3 1309 1141 1308 
3 1141 1309 1142 
3 1303 1305 1141 
3 1309 1146 1142 
3 1144 1143 1310 
3 1311 1310 1143 
3 1143 1145 1311 
3 1147 1144 1310 
3 1146 1309 1145 
3 1145 1309 1312 
3 1311 1145 1312 
3 1148 1147 1310 
3 1310 1313 1148 
3 1314 1315 1148 
3 1148 1313 1314 
3 1298 1148 1315 
3 1316 1149 1317 
3 1268 1317 1149 
3 1152 1149 1316 
3 1153 1151 1150 
3 1318 1150 1152 
3 1304 1153 1150 
3 1150 1318 1304 
3 1319 1318 1152 
3 1319 1152 1316 
3 1154 1164 1163 
3 1163 1320 1154 
3 1155 1154 1320 
3 1321 1155 1320 
3 1322 1161 1155 
3 1322 1155 1321 
3 1160 1166 1156 
3 1158 1322 1157 
3 1159 1157 1323 
3 1157 1324 1325 
3 1323 1157 1325 
3 1322 1324 1157 
3 1158 1161 1322 
3 1326 1160 1159 
3 1159 1323 1326 
3 1166 1160 1326 
3 1162 1297 1163 
3 1163 1297 1302 
3 1320 1163 1302 
3 1327 1165 1328 
3 1168 1165 1327 
3 1165 1166 1328 
3 1328 1166 1326 
3 1170 1168 1327 
3 1329 1169 1171 
3 1172 1169 1329 
3 1330 1170 1327 
3 1331 1170 1330 
3 1171 1170 1331 
3 1332 1171 1333 
3 1331 1334 1171 
3 1171 1332 1329 
3 1171 1334 1333 
3 1173 1172 1329 
3 1335 1173 1329 
3 1335 1175 1173 
3 1174 1336 1206 
3 1180 1336 1174 
3 1337 1338 1175 
3 1175 1335 1337 
3 1176 1175 1338 
3 1178 1177 1176 
3 1176 1339 1178 
3 1338 1339 1176 
3 1178 1339 1179 
3 1340 1341 1179 
3 1179 1338 1337 
3 1179 1341 1180 
3 1179 1339 1338 
3 1340 1179 1342 
3 1337 1342 1179 
3 1180 1341 1336 
3 1184 1201 1183 
3 1343 1201 1184 
3 1186 1343 1184 
3 1344 1188 1185 
3 1185 1345 1344 
3 1189 1345 1185 
3 1343 1186 1346 
3 1187 1346 1186 
3 1187 1188 1347 
3 1187 1347 1348 
3 1187 1348 1349 
3 1349 1346 1187 
3 1350 1188 1344 
3 1347 1188 1350 
3 1345 1189 1351 
3 1352 1351 1189 
3 1353 1352 1189 
3 1190 1353 1189 
3 1190 1354 1353 
3 1354 1190 1191 
3 1354 1191 1192 
3 1192 1194 1355 
3 1193 1194 1192 
3 1355 1356 1192 
3 1354 1192 1356 
3 1357 1194 1195 
3 1194 1357 1355 
3 1358 1359 1195 
3 1359 1357 1195 
3 1219 1358 1195 
3 1197 1205 1196 
3 1197 1199 1204 
3 1204 1205 1197 
3 1198 1199 1197 
3 1204 1199 1360 
3 1199 1200 1361 
3 1361 1360 1199 
3 1200 1362 1361 
3 1201 1362 1200 
3 1362 1201 1343 
3 1202 1204 1252 
3 1204 1202 1203 
3 1204 1363 1252 
3 1364 1363 1204 
3 1360 1364 1204 
3 1206 1365 1226 
3 1206 1336 1365 
3 1226 1207 1206 
3 1209 1227 1225 
3 1225 1212 1209 
3 1227 1209 1366 
3 1209 1223 1366 
3 1367 1211 1210 
3 1367 1210 1368 
3 1210 1212 1368 
3 1211 1367 1369 
3 1214 1211 1369 
3 1370 1212 1225 
3 1370 1371 1212 
3 1212 1372 1368 
3 1212 1371 1372 
3 1215 1213 1214 
3 1369 1216 1214 
3 1217 1216 1373 
3 1369 1373 1216 
3 1222 1217 1374 
3 1217 1373 1374 
3 1221 1358 1219 
3 1221 1220 1222 
3 1222 1375 1221 
3 1221 1375 1376 
3 1358 1221 1376 
3 1374 1375 1222 
3 1366 1223 1228 
3 1366 1228 1224 
3 1224 1227 1366 
3 1377 1225 1226 
3 1370 1225 1377 
3 1226 1365 1377 
3 1231 1230 1229 
3 1238 1233 1232 
3 1378 1233 1238 
3 1233 1378 1237 
3 1379 1234 1235 
3 1379 1287 1234 
3 1235 1380 1379 
3 1381 1382 1235 
3 1382 1380 1235 
3 1235 1236 1381 
3 1383 1384 1236 
3 1384 1381 1236 
3 1383 1236 1237 
3 1383 1237 1385 
3 1385 1237 1378 
3 1238 1239 1386 
3 1238 1385 1378 
3 1386 1385 1238 
3 1386 1239 1242 
3 1239 1241 1243 
3 1239 1243 1242 
3 1243 1241 1240 
3 1242 1387 1386 
3 1246 1387 1242 
3 1244 1388 1245 
3 1389 1388 1244 
3 1244 1248 1390 
3 1391 1389 1244 
3 1244 1390 1391 
3 1392 1393 1245 
3 1245 1394 1392 
3 1393 1395 1245 
3 1394 1245 1388 
3 1245 1395 1247 
3 1247 1387 1246 
3 1396 1247 1395 
3 1247 1396 1387 
3 1390 1248 1249 
3 1249 1397 1390 
3 1249 1398 1397 
3 1251 1398 1249 
3 1250 1399 1251 
3 1399 1250 1400 
3 1400 1250 1252 
3 1401 1398 1251 
3 1399 1401 1251 
3 1400 1252 1402 
3 1363 1402 1252 
3 1256 1253 1267 
3 1254 1403 1255 
3 1403 1254 1404 
3 1257 1405 1254 
3 1404 1254 1405 
3 1255 1403 1406 
3 1406 1275 1255 
3 1267 1407 1256 
3 1407 1404 1256 
3 1405 1256 1404 
3 1256 1405 1257 
3 1259 1258 1277 
3 1277 1408 1259 
3 1408 1260 1259 
3 1409 1261 1260 
3 1260 1410 1409 
3 1260 1408 1410 
3 1261 1409 1411 
3 1261 1411 1412 
3 1412 1262 1261 
3 1412 1265 1262 
3 1264 1263 1413 
3 1414 1263 1415 
3 1263 1414 1416 
3 1263 1416 1413 
3 1265 1415 1263 
3 1264 1413 1417 
3 1264 1417 1418 
3 1418 1266 1264 
3 1265 1419 1420 
3 1420 1415 1265 
3 1419 1265 1412 
3 1266 1421 1267 
3 1418 1422 1266 
3 1421 1266 1422 
3 1423 1407 1267 
3 1421 1424 1267 
3 1267 1424 1423 
3 1270 1317 1268 
3 1269 1274 1425 
3 1426 1271 1269 
3 1269 1425 1426 
3 1427 1317 1270 
3 1270 1428 1429 
3 1430 1270 1429 
3 1431 1270 1430 
3 1271 1432 1270 
3 1270 1431 1427 
3 1432 1428 1270 
3 1426 1432 1271 
3 1272 1273 1433 
3 1272 1434 1425 
3 1274 1272 1425 
3 1434 1272 1433 
3 1435 1273 1275 
3 1435 1433 1273 
3 1275 1423 1435 
3 1423 1275 1406 
3 1436 1437 1277 
3 1277 1278 1436 
3 1277 1437 1408 
3 1436 1278 1438 
3 1279 1438 1278 
3 1279 1283 1439 
3 1440 1279 1439 
3 1440 1438 1279 
3 1441 1281 1280 
3 1441 1280 1442 
3 1442 1280 1282 
3 1281 1443 1283 
3 1441 1444 1281 
3 1444 1443 1281 
3 1282 1295 1442 
3 1443 1439 1283 
3 1286 1445 1284 
3 1445 1292 1284 
3 1285 1445 1286 
3 1288 1445 1285 
3 1287 1446 1447 
3 1448 1288 1287 
3 1447 1449 1287 
3 1287 1292 1448 
3 1287 1379 1446 
3 1289 1292 1287 
3 1287 1449 1289 
3 1448 1445 1288 
3 1289 1450 1291 
3 1450 1289 1449 
3 1296 1291 1450 
3 1292 1445 1448 
3 1294 1293 1451 
3 1451 1293 1296 
3 1452 1294 1453 
3 1454 1455 1294 
3 1456 1457 1294 
3 1458 1453 1294 
3 1294 1452 1456 
3 1294 1457 1295 
3 1455 1458 1294 
3 1451 1454 1294 
3 1457 1459 1295 
3 1459 1442 1295 
3 1296 1450 1460 
3 1454 1296 1460 
3 1296 1454 1451 
3 1461 1299 1298 
3 1315 1462 1298 
3 1298 1462 1461 
3 1300 1299 1461 
3 1463 1464 1300 
3 1465 1301 1300 
3 1300 1464 1465 
3 1300 1461 1466 
3 1466 1463 1300 
3 1302 1301 1467 
3 1468 1467 1301 
3 1465 1468 1301 
3 1321 1320 1302 
3 1321 1302 1469 
3 1302 1467 1469 
3 1306 1304 1318 
3 1305 1470 1307 
3 1306 1471 1305 
3 1471 1472 1305 
3 1305 1472 1470 
3 1473 1306 1474 
3 1318 1474 1306 
3 1473 1471 1306 
3 1475 1307 1470 
3 1307 1475 1308 
3 1312 1308 1476 
3 1477 1478 1308 
3 1308 1479 1480 
3 1308 1478 1479 
3 1476 1308 1480 
3 1308 1475 1477 
3 1308 1312 1309 
3 1311 1313 1310 
3 1311 1312 1481 
3 1481 1313 1311 
3 1482 1312 1483 
3 1476 1483 1312 
3 1484 1481 1312 
3 1482 1484 1312 
3 1485 1313 1481 
3 1313 1486 1314 
3 1485 1486 1313 
3 1314 1487 1315 
3 1487 1314 1486 
3 1488 1315 1487 
3 1462 1315 1488 
3 1316 1317 1427 
3 1489 1316 1490 
3 1427 1490 1316 
3 1316 1489 1319 
3 1474 1318 1319 
3 1491 1492 1319 
3 1319 1493 1494 
3 1319 1494 1491 
3 1474 1319 1492 
3 1493 1319 1489 
3 1321 1495 1464 
3 1468 1495 1321 
3 1469 1468 1321 
3 1496 1321 1464 
3 1322 1321 1497 
3 1497 1321 1496 
3 1324 1322 1497 
3 1498 1499 1323 
3 1323 1500 1498 
3 1325 1500 1323 
3 1326 1323 1501 
3 1323 1502 1503 
3 1323 1499 1504 
3 1501 1323 1503 
3 1502 1323 1504 
3 1325 1324 1505 
3 1497 1505 1324 
3 1500 1325 1505 
3 1328 1326 1506 
3 1501 1507 1326 
3 1506 1326 1507 
3 1327 1328 1506 
3 1330 1327 1508 
3 1327 1506 1509 
3 1508 1327 1510 
3 1327 1509 1510 
3 1511 1329 1332 
3 1335 1329 1512 
3 1512 1329 1513 
3 1329 1511 1513 
3 1508 1514 1330 
3 1331 1330 1515 
3 1515 1330 1514 
3 1515 1334 1331 
3 1333 1511 1332 
3 1333 1513 1511 
3 1516 1517 1333 
3 1334 1516 1333 
3 1518 1513 1333 
3 1333 1517 1518 
3 1334 1515 1519 
3 1516 1334 1519 
3 1512 1337 1335 
3 1336 1341 1520 
3 1521 1522 1336 
3 1336 1520 1523 
3 1522 1365 1336 
3 1336 1523 1521 
3 1337 1512 1524 
3 1337 1524 1342 
3 1341 1340 1520 
3 1525 1340 1342 
3 1520 1340 1525 
3 1342 1526 1527 
3 1526 1342 1524 
3 1342 1527 1528 
3 1342 1528 1525 
3 1362 1343 1529 
3 1346 1529 1343 
3 1530 1350 1344 
3 1530 1344 1345 
3 1351 1530 1345 
3 1531 1346 1532 
3 1531 1529 1346 
3 1346 1349 1533 
3 1532 1346 1533 
3 1347 1534 1535 
3 1536 1348 1347 
3 1535 1536 1347 
3 1350 1534 1347 
3 1349 1348 1537 
3 1535 1537 1348 
3 1535 1348 1536 
3 1537 1533 1349 
3 1534 1350 1530 
3 1530 1351 1352 
3 1352 1538 1530 
3 1352 1356 1539 
3 1539 1538 1352 
3 1352 1353 1356 
3 1356 1353 1354 
3 1355 1359 1540 
3 1540 1356 1355 
3 1355 1357 1359 
3 1356 1540 1541 
3 1541 1539 1356 
3 1542 1359 1358 
3 1358 1376 1542 
3 1542 1543 1359 
3 1544 1540 1359 
3 1359 1543 1544 
3 1545 1364 1360 
3 1546 1360 1361 
3 1360 1547 1545 
3 1360 1546 1547 
3 1548 1546 1361 
3 1361 1549 1548 
3 1529 1549 1361 
3 1529 1361 1362 
3 1402 1363 1550 
3 1364 1550 1363 
3 1550 1364 1545 
3 1522 1377 1365 
3 1369 1367 1551 
3 1368 1552 1367 
3 1551 1367 1552 
3 1368 1372 1553 
3 1552 1368 1553 
3 1369 1551 1554 
3 1554 1555 1369 
3 1369 1555 1373 
3 1377 1556 1370 
3 1370 1556 1557 
3 1370 1558 1559 
3 1370 1559 1371 
3 1557 1558 1370 
3 1553 1372 1371 
3 1371 1559 1553 
3 1373 1555 1374 
3 1560 1561 1374 
3 1374 1555 1560 
3 1375 1374 1376 
3 1376 1374 1561 
3 1562 1542 1376 
3 1561 1562 1376 
3 1522 1556 1377 
3 1563 1379 1380 
3 1379 1563 1564 
3 1564 1446 1379 
3 1380 1565 1563 
3 1380 1566 1565 
3 1380 1567 1566 
3 1567 1380 1382 
3 1381 1568 1382 
3 1384 1568 1381 
3 1569 1567 1382 
3 1569 1382 1568 
3 1383 1385 1570 
3 1571 1384 1383 
3 1572 1573 1383 
3 1570 1572 1383 
3 1573 1571 1383 
3 1384 1571 1569 
3 1568 1384 1569 
3 1386 1570 1385 
3 1386 1574 1570 
3 1387 1574 1386 
3 1574 1387 1396 
3 1394 1388 1389 
3 1391 1394 1389 
3 1575 1391 1390 
3 1575 1390 1397 
3 1576 1391 1575 
3 1394 1391 1577 
3 1576 1577 1391 
3 1488 1392 1462 
3 1466 1462 1392 
3 1392 1394 1466 
3 1393 1392 1488 
3 1488 1395 1393 
3 1466 1394 1463 
3 1463 1394 1577 
3 1395 1488 1578 
3 1395 1578 1579 
3 1579 1396 1395 
3 1396 1579 1574 
3 1580 1575 1397 
3 1580 1397 1398 
3 1581 1580 1398 
3 1581 1398 1401 
3 1582 1401 1399 
3 1399 1583 1584 
3 1584 1582 1399 
3 1400 1583 1399 
3 1402 1583 1400 
3 1585 1401 1586 
3 1401 1585 1581 
3 1586 1401 1582 
3 1583 1402 1550 
3 1406 1403 1404 
3 1407 1423 1404 
3 1404 1423 1406 
3 1408 1437 1410 
3 1409 1587 1411 
3 1409 1588 1587 
3 1589 1588 1409 
3 1409 1410 1589 
3 1437 1590 1410 
3 1591 1589 1410 
3 1590 1591 1410 
3 1412 1411 1592 
3 1593 1411 1587 
3 1592 1411 1593 
3 1592 1419 1412 
3 1417 1413 1594 
3 1413 1595 1594 
3 1596 1413 1416 
3 1595 1413 1596 
3 1597 1414 1415 
3 1598 1416 1414 
3 1598 1414 1597 
3 1599 1415 1420 
3 1597 1415 1599 
3 1596 1416 1598 
3 1417 1600 1601 
3 1594 1602 1417 
3 1417 1603 1604 
3 1600 1417 1604 
3 1418 1417 1601 
3 1602 1603 1417 
3 1601 1605 1418 
3 1422 1418 1605 
3 1419 1606 1420 
3 1607 1419 1608 
3 1419 1607 1606 
3 1608 1419 1592 
3 1609 1420 1606 
3 1599 1420 1609 
3 1605 1610 1421 
3 1422 1605 1421 
3 1421 1610 1424 
3 1423 1424 1435 
3 1424 1611 1612 
3 1611 1424 1613 
3 1610 1613 1424 
3 1435 1424 1612 
3 1434 1614 1425 
3 1425 1614 1426 
3 1432 1426 1614 
3 1431 1490 1427 
3 1428 1615 1429 
3 1428 1616 1615 
3 1616 1428 1617 
3 1432 1617 1428 
3 1615 1618 1429 
3 1429 1618 1619 
3 1429 1619 1620 
3 1429 1621 1430 
3 1620 1621 1429 
3 1621 1622 1430 
3 1431 1430 1622 
3 1490 1431 1623 
3 1431 1622 1623 
3 1432 1624 1617 
3 1432 1434 1624 
3 1434 1432 1614 
3 1433 1435 1612 
3 1625 1626 1433 
3 1626 1627 1433 
3 1433 1612 1625 
3 1433 1627 1434 
3 1434 1627 1624 
3 1628 1437 1436 
3 1436 1438 1440 
3 1629 1436 1440 
3 1630 1628 1436 
3 1436 1629 1630 
3 1631 1437 1628 
3 1590 1437 1631 
3 1439 1443 1632 
3 1632 1440 1439 
3 1440 1633 1629 
3 1632 1633 1440 
3 1634 1635 1441 
3 1635 1444 1441 
3 1636 1634 1441 
3 1459 1441 1442 
3 1459 1636 1441 
3 1635 1637 1443 
3 1637 1632 1443 
3 1635 1443 1444 
3 1446 1638 1447 
3 1639 1640 1446 
3 1564 1639 1446 
3 1641 1638 1446 
3 1446 1640 1641 
3 1447 1638 1642 
3 1643 1449 1447 
3 1447 1642 1643 
3 1449 1643 1460 
3 1449 1460 1450 
3 1453 1644 1452 
3 1452 1645 1646 
3 1647 1645 1452 
3 1452 1648 1649 
3 1644 1647 1452 
3 1650 1452 1646 
3 1649 1456 1452 
3 1452 1650 1648 
3 1453 1458 1644 
3 1455 1454 1651 
3 1460 1651 1454 
3 1458 1455 1651 
3 1457 1456 1649 
3 1649 1636 1457 
3 1636 1459 1457 
3 1460 1644 1458 
3 1458 1651 1460 
3 1644 1460 1643 
3 1461 1462 1466 
3 1464 1463 1498 
3 1463 1577 1498 
3 1464 1652 1465 
3 1464 1498 1496 
3 1495 1652 1464 
3 1468 1465 1652 
3 1469 1467 1468 
3 1468 1652 1495 
3 1470 1653 1477 
3 1477 1475 1470 
3 1470 1472 1653 
3 1471 1473 1654 
3 1654 1472 1471 
3 1654 1655 1472 
3 1472 1655 1653 
3 1654 1473 1474 
3 1654 1474 1656 
3 1656 1474 1492 
3 1476 1657 1658 
3 1476 1658 1659 
3 1476 1659 1483 
3 1480 1657 1476 
3 1478 1477 1653 
3 1660 1478 1661 
3 1662 1661 1478 
3 1478 1653 1662 
3 1479 1478 1660 
3 1480 1479 1663 
3 1663 1479 1660 
3 1480 1663 1657 
3 1481 1484 1485 
3 1483 1664 1482 
3 1482 1664 1665 
3 1482 1665 1484 
3 1664 1483 1659 
3 1485 1484 1666 
3 1484 1665 1666 
3 1667 1578 1485 
3 1666 1573 1485 
3 1485 1573 1667 
3 1486 1485 1578 
3 1486 1578 1487 
3 1488 1487 1578 
3 1490 1668 1489 
3 1489 1668 1493 
3 1490 1623 1669 
3 1490 1670 1668 
3 1490 1669 1670 
3 1671 1492 1491 
3 1494 1672 1491 
3 1491 1672 1671 
3 1492 1671 1656 
3 1493 1673 1494 
3 1493 1670 1673 
3 1668 1670 1493 
3 1494 1673 1672 
3 1498 1500 1496 
3 1500 1497 1496 
3 1505 1497 1500 
3 1499 1498 1674 
3 1581 1498 1675 
3 1498 1581 1674 
3 1577 1675 1498 
3 1674 1676 1499 
3 1499 1676 1504 
3 1677 1507 1501 
3 1503 1677 1501 
3 1503 1502 1678 
3 1502 1504 1679 
3 1679 1678 1502 
3 1503 1678 1680 
3 1503 1681 1677 
3 1682 1681 1503 
3 1680 1682 1503 
3 1683 1504 1676 
3 1679 1504 1683 
3 1506 1684 1509 
3 1506 1681 1685 
3 1681 1506 1507 
3 1684 1506 1685 
3 1507 1677 1681 
3 1686 1514 1508 
3 1510 1687 1508 
3 1508 1687 1686 
3 1688 1510 1509 
3 1688 1509 1684 
3 1510 1688 1689 
3 1687 1510 1690 
3 1510 1689 1690 
3 1691 1524 1512 
3 1512 1513 1691 
3 1691 1513 1518 
3 1514 1686 1515 
3 1515 1686 1519 
3 1516 1692 1517 
3 1519 1693 1516 
3 1692 1516 1693 
3 1694 1695 1517 
3 1695 1518 1517 
3 1517 1692 1696 
3 1517 1696 1697 
3 1517 1697 1698 
3 1698 1694 1517 
3 1526 1691 1518 
3 1695 1699 1518 
3 1518 1699 1526 
3 1693 1519 1700 
3 1519 1686 1687 
3 1519 1687 1700 
3 1520 1525 1701 
3 1520 1701 1523 
3 1522 1521 1702 
3 1702 1521 1703 
3 1703 1521 1523 
3 1702 1704 1522 
3 1704 1556 1522 
3 1703 1523 1701 
3 1526 1524 1691 
3 1525 1705 1701 
3 1528 1705 1525 
3 1699 1527 1526 
3 1706 1527 1699 
3 1527 1706 1707 
3 1707 1528 1527 
3 1707 1705 1528 
3 1529 1548 1549 
3 1529 1708 1548 
3 1708 1529 1531 
3 1538 1534 1530 
3 1532 1709 1531 
3 1531 1710 1708 
3 1531 1711 1710 
3 1711 1531 1712 
3 1713 1531 1709 
3 1713 1712 1531 
3 1714 1709 1532 
3 1532 1533 1714 
3 1533 1537 1714 
3 1715 1535 1534 
3 1534 1538 1715 
3 1535 1716 1717 
3 1717 1537 1535 
3 1535 1718 1716 
3 1535 1715 1719 
3 1719 1718 1535 
3 1717 1720 1537 
3 1721 1714 1537 
3 1537 1720 1721 
3 1539 1715 1538 
3 1539 1722 1715 
3 1723 1539 1724 
3 1722 1539 1723 
3 1541 1724 1539 
3 1541 1540 1544 
3 1725 1724 1541 
3 1541 1726 1725 
3 1726 1541 1544 
3 1727 1543 1542 
3 1542 1562 1727 
3 1726 1544 1543 
3 1727 1726 1543 
3 1545 1728 1550 
3 1729 1728 1545 
3 1545 1547 1729 
3 1729 1546 1730 
3 1730 1546 1548 
3 1729 1547 1546 
3 1548 1710 1730 
3 1708 1710 1548 
3 1583 1550 1728 
3 1731 1732 1551 
3 1551 1552 1553 
3 1551 1732 1554 
3 1551 1553 1731 
3 1731 1553 1733 
3 1553 1559 1733 
3 1719 1554 1734 
3 1554 1719 1722 
3 1554 1735 1734 
3 1735 1554 1732 
3 1554 1736 1555 
3 1722 1736 1554 
3 1723 1560 1555 
3 1555 1736 1723 
3 1556 1704 1737 
3 1556 1737 1557 
3 1557 1738 1739 
3 1739 1740 1557 
3 1557 1737 1741 
3 1741 1738 1557 
3 1557 1740 1742 
3 1558 1557 1742 
3 1559 1558 1743 
3 1742 1744 1558 
3 1558 1744 1743 
3 1733 1559 1745 
3 1559 1743 1745 
3 1560 1562 1561 
3 1562 1560 1746 
3 1747 1560 1723 
3 1747 1746 1560 
3 1562 1746 1727 
3 1563 1748 1564 
3 1563 1565 1749 
3 1749 1748 1563 
3 1564 1748 1639 
3 1566 1750 1565 
3 1565 1751 1752 
3 1565 1753 1751 
3 1565 1752 1749 
3 1750 1753 1565 
3 1566 1754 1755 
3 1755 1750 1566 
3 1754 1566 1567 
3 1569 1754 1567 
3 1569 1756 1754 
3 1756 1569 1571 
3 1757 1667 1570 
3 1667 1572 1570 
3 1570 1574 1579 
3 1570 1579 1757 
3 1573 1666 1571 
3 1666 1756 1571 
3 1573 1572 1667 
3 1580 1758 1575 
3 1575 1758 1576 
3 1576 1675 1577 
3 1675 1576 1581 
3 1576 1758 1581 
3 1578 1667 1757 
3 1578 1757 1579 
3 1581 1758 1580 
3 1674 1581 1585 
3 1582 1759 1586 
3 1759 1582 1584 
3 1760 1584 1583 
3 1760 1583 1728 
3 1759 1584 1760 
3 1585 1761 1674 
3 1586 1762 1585 
3 1761 1585 1762 
3 1586 1763 1764 
3 1586 1759 1765 
3 1586 1765 1763 
3 1762 1586 1764 
3 1766 1593 1587 
3 1766 1587 1767 
3 1587 1588 1768 
3 1768 1767 1587 
3 1768 1588 1769 
3 1769 1588 1589 
3 1589 1770 1771 
3 1771 1769 1589 
3 1589 1591 1770 
3 1770 1591 1590 
3 1631 1770 1590 
3 1592 1772 1608 
3 1772 1592 1773 
3 1773 1592 1593 
3 1773 1593 1766 
3 1602 1594 1595 
3 1774 1602 1595 
3 1595 1596 1774 
3 1774 1596 1598 
3 1774 1598 1597 
3 1774 1597 1599 
3 1599 1609 1775 
3 1775 1774 1599 
3 1601 1600 1776 
3 1777 1600 1778 
3 1776 1600 1779 
3 1604 1778 1600 
3 1600 1777 1779 
3 1601 1776 1780 
3 1780 1605 1601 
3 1602 1781 1782 
3 1602 1782 1783 
3 1602 1784 1781 
3 1784 1602 1774 
3 1602 1783 1603 
3 1604 1603 1785 
3 1785 1603 1783 
3 1785 1778 1604 
3 1786 1605 1780 
3 1786 1610 1605 
3 1787 1606 1607 
3 1609 1606 1787 
3 1788 1607 1608 
3 1787 1607 1788 
3 1789 1608 1772 
3 1788 1608 1789 
3 1609 1787 1775 
3 1786 1613 1610 
3 1612 1611 1786 
3 1611 1613 1786 
3 1612 1790 1625 
3 1612 1786 1791 
3 1792 1790 1612 
3 1612 1791 1792 
3 1616 1618 1615 
3 1618 1616 1793 
3 1793 1616 1794 
3 1794 1616 1624 
3 1617 1624 1616 
3 1793 1795 1618 
3 1618 1796 1619 
3 1796 1618 1795 
3 1620 1619 1796 
3 1670 1797 1620 
3 1620 1798 1670 
3 1799 1620 1796 
3 1797 1621 1620 
3 1620 1799 1798 
3 1622 1621 1797 
3 1623 1622 1797 
3 1797 1669 1623 
3 1626 1800 1624 
3 1624 1627 1626 
3 1624 1800 1794 
3 1801 1626 1625 
3 1802 1801 1625 
3 1803 1625 1790 
3 1803 1802 1625 
3 1626 1804 1800 
3 1804 1626 1801 
3 1628 1630 1805 
3 1628 1805 1806 
3 1807 1628 1806 
3 1628 1807 1631 
3 1808 1630 1629 
3 1633 1808 1629 
3 1809 1630 1810 
3 1630 1809 1805 
3 1810 1630 1808 
3 1811 1812 1631 
3 1807 1811 1631 
3 1631 1812 1770 
3 1633 1632 1813 
3 1632 1814 1813 
3 1637 1814 1632 
3 1808 1633 1815 
3 1633 1813 1815 
3 1635 1634 1648 
3 1634 1636 1649 
3 1649 1648 1634 
3 1648 1816 1635 
3 1814 1635 1816 
3 1635 1814 1637 
3 1638 1817 1642 
3 1641 1818 1638 
3 1638 1818 1817 
3 1640 1639 1819 
3 1639 1748 1819 
3 1820 1821 1640 
3 1640 1821 1641 
3 1820 1640 1822 
3 1640 1819 1822 
3 1818 1641 1821 
3 1817 1823 1642 
3 1824 1644 1642 
3 1643 1642 1644 
3 1642 1825 1824 
3 1642 1823 1825 
3 1826 1647 1644 
3 1824 1826 1644 
3 1645 1827 1646 
3 1645 1828 1829 
3 1830 1827 1645 
3 1828 1645 1647 
3 1829 1830 1645 
3 1646 1827 1831 
3 1650 1646 1831 
3 1647 1832 1828 
3 1832 1647 1826 
3 1648 1650 1816 
3 1814 1816 1650 
3 1650 1831 1814 
3 1655 1662 1653 
3 1656 1671 1654 
3 1671 1655 1654 
3 1655 1671 1833 
3 1662 1655 1833 
3 1657 1834 1658 
3 1657 1663 1834 
3 1835 1658 1836 
3 1837 1836 1658 
3 1838 1658 1834 
3 1835 1839 1658 
3 1658 1840 1837 
3 1841 1840 1658 
3 1838 1841 1658 
3 1659 1658 1839 
3 1664 1659 1839 
3 1661 1842 1660 
3 1842 1843 1660 
3 1660 1843 1663 
3 1842 1661 1844 
3 1661 1845 1846 
3 1844 1661 1846 
3 1845 1661 1662 
3 1662 1833 1845 
3 1834 1663 1843 
3 1755 1665 1664 
3 1755 1664 1839 
3 1666 1665 1756 
3 1665 1755 1756 
3 1669 1797 1670 
3 1847 1670 1798 
3 1670 1847 1673 
3 1671 1848 1833 
3 1849 1671 1672 
3 1848 1671 1849 
3 1850 1672 1851 
3 1851 1672 1673 
3 1850 1852 1672 
3 1672 1852 1849 
3 1673 1853 1851 
3 1847 1853 1673 
3 1674 1854 1676 
3 1854 1674 1761 
3 1676 1855 1683 
3 1854 1855 1676 
3 1679 1856 1678 
3 1680 1678 1856 
3 1857 1858 1679 
3 1859 1856 1679 
3 1683 1860 1679 
3 1861 1862 1679 
3 1858 1863 1679 
3 1679 1863 1861 
3 1679 1860 1857 
3 1862 1859 1679 
3 1859 1682 1680 
3 1859 1680 1856 
3 1685 1681 1682 
3 1685 1682 1859 
3 1683 1855 1864 
3 1864 1860 1683 
3 1684 1689 1688 
3 1689 1684 1685 
3 1685 1859 1862 
3 1689 1685 1862 
3 1690 1700 1687 
3 1865 1866 1689 
3 1689 1867 1865 
3 1867 1689 1862 
3 1690 1689 1866 
3 1866 1700 1690 
3 1696 1692 1868 
3 1692 1693 1868 
3 1693 1700 1866 
3 1869 1693 1870 
3 1870 1693 1871 
3 1865 1871 1693 
3 1872 1873 1693 
3 1868 1693 1873 
3 1693 1866 1865 
3 1872 1693 1869 
3 1694 1874 1695 
3 1874 1694 1875 
3 1698 1875 1694 
3 1874 1706 1695 
3 1695 1706 1699 
3 1868 1873 1696 
3 1696 1873 1876 
3 1696 1876 1877 
3 1877 1697 1696 
3 1697 1878 1698 
3 1878 1697 1879 
3 1877 1879 1697 
3 1875 1698 1880 
3 1878 1880 1698 
3 1701 1705 1881 
3 1701 1881 1703 
3 1704 1702 1737 
3 1703 1741 1702 
3 1702 1741 1737 
3 1703 1881 1882 
3 1883 1738 1703 
3 1741 1703 1738 
3 1703 1882 1883 
3 1707 1881 1705 
3 1874 1884 1706 
3 1706 1884 1707 
3 1884 1885 1707 
3 1707 1886 1881 
3 1885 1886 1707 
3 1713 1709 1887 
3 1887 1709 1714 
3 1710 1888 1730 
3 1710 1889 1890 
3 1890 1891 1710 
3 1891 1888 1710 
3 1889 1710 1711 
3 1712 1889 1711 
3 1712 1892 1889 
3 1893 1712 1713 
3 1894 1892 1712 
3 1895 1894 1712 
3 1712 1893 1895 
3 1887 1896 1713 
3 1713 1896 1893 
3 1721 1896 1714 
3 1714 1896 1887 
3 1715 1722 1719 
3 1897 1717 1716 
3 1898 1897 1716 
3 1899 1898 1716 
3 1734 1900 1716 
3 1734 1716 1718 
3 1716 1900 1899 
3 1897 1901 1717 
3 1717 1902 1903 
3 1901 1902 1717 
3 1903 1720 1717 
3 1734 1718 1719 
3 1903 1904 1720 
3 1896 1720 1893 
3 1904 1893 1720 
3 1720 1896 1721 
3 1723 1736 1722 
3 1723 1724 1747 
3 1724 1725 1747 
3 1725 1905 1747 
3 1726 1905 1725 
3 1905 1726 1906 
3 1726 1727 1906 
3 1906 1727 1746 
3 1760 1728 1907 
3 1907 1728 1729 
3 1729 1908 1907 
3 1730 1888 1729 
3 1888 1908 1729 
3 1732 1731 1909 
3 1731 1910 1911 
3 1731 1911 1912 
3 1912 1909 1731 
3 1733 1913 1731 
3 1914 1731 1913 
3 1914 1910 1731 
3 1732 1915 1916 
3 1732 1909 1915 
3 1916 1735 1732 
3 1745 1917 1733 
3 1733 1917 1913 
3 1900 1734 1735 
3 1900 1735 1916 
3 1738 1883 1739 
3 1739 1883 1918 
3 1739 1918 1919 
3 1920 1921 1739 
3 1920 1739 1919 
3 1922 1740 1739 
3 1922 1739 1921 
3 1740 1922 1742 
3 1923 1742 1922 
3 1744 1742 1923 
3 1744 1924 1743 
3 1745 1743 1924 
3 1924 1744 1925 
3 1923 1925 1744 
3 1745 1924 1926 
3 1745 1927 1928 
3 1745 1928 1917 
3 1745 1926 1927 
3 1929 1906 1746 
3 1929 1746 1747 
3 1747 1905 1929 
3 1752 1930 1748 
3 1748 1931 1819 
3 1748 1749 1752 
3 1930 1931 1748 
3 1755 1932 1750 
3 1932 1753 1750 
3 1752 1751 1933 
3 1933 1751 1932 
3 1932 1751 1753 
3 1933 1930 1752 
3 1756 1755 1754 
3 1839 1934 1755 
3 1932 1755 1934 
3 1935 1765 1759 
3 1760 1935 1759 
3 1760 1936 1763 
3 1763 1935 1760 
3 1936 1760 1937 
3 1937 1760 1907 
3 1762 1854 1761 
3 1854 1762 1938 
3 1764 1939 1762 
3 1939 1938 1762 
3 1763 1936 1764 
3 1935 1763 1765 
3 1764 1936 1940 
3 1940 1941 1764 
3 1764 1941 1939 
3 1942 1773 1766 
3 1767 1943 1766 
3 1766 1943 1942 
3 1767 1944 1945 
3 1945 1943 1767 
3 1946 1944 1767 
3 1946 1767 1768 
3 1769 1946 1768 
3 1947 1769 1812 
3 1812 1769 1771 
3 1946 1769 1948 
3 1948 1769 1947 
3 1812 1771 1770 
3 1789 1772 1949 
3 1950 1949 1772 
3 1773 1950 1772 
3 1773 1942 1950 
3 1774 1951 1784 
3 1952 1951 1774 
3 1775 1952 1774 
3 1953 1775 1788 
3 1787 1788 1775 
3 1952 1775 1953 
3 1780 1776 1786 
3 1776 1954 1786 
3 1779 1954 1776 
3 1777 1778 1955 
3 1956 1957 1777 
3 1777 1957 1779 
3 1955 1956 1777 
3 1958 1955 1778 
3 1778 1959 1958 
3 1785 1959 1778 
3 1960 1954 1779 
3 1779 1957 1960 
3 1961 1782 1781 
3 1781 1784 1951 
3 1781 1951 1961 
3 1782 1961 1783 
3 1959 1785 1783 
3 1961 1959 1783 
3 1954 1791 1786 
3 1788 1789 1953 
3 1962 1953 1789 
3 1789 1949 1962 
3 1790 1963 1803 
3 1792 1963 1790 
3 1960 1964 1791 
3 1791 1954 1960 
3 1791 1964 1792 
3 1965 1792 1964 
3 1792 1965 1963 
3 1966 1795 1793 
3 1794 1800 1793 
3 1793 1800 1967 
3 1967 1966 1793 
3 1968 1796 1795 
3 1969 1968 1795 
3 1795 1970 1969 
3 1970 1795 1971 
3 1971 1795 1972 
3 1795 1966 1972 
3 1973 1796 1968 
3 1799 1796 1973 
3 1798 1799 1974 
3 1975 1976 1798 
3 1976 1847 1798 
3 1798 1974 1975 
3 1799 1973 1977 
3 1977 1974 1799 
3 1967 1800 1804 
3 1978 1804 1801 
3 1801 1802 1978 
3 1978 1802 1979 
3 1803 1980 1802 
3 1980 1979 1802 
3 1981 1980 1803 
3 1803 1963 1981 
3 1982 1804 1978 
3 1804 1966 1967 
3 1983 1966 1804 
3 1804 1982 1983 
3 1805 1984 1806 
3 1805 1809 1985 
3 1985 1984 1805 
3 1806 1986 1807 
3 1806 1987 1986 
3 1984 1988 1806 
3 1988 1987 1806 
3 1989 1990 1807 
3 1807 1990 1811 
3 1986 1989 1807 
3 1815 1810 1808 
3 1809 1810 1991 
3 1809 1991 1985 
3 1810 1815 1992 
3 1992 1991 1810 
3 1947 1812 1811 
3 1990 1947 1811 
3 1815 1813 1993 
3 1813 1831 1993 
3 1831 1813 1814 
3 1815 1993 1992 
3 1823 1817 1818 
3 1823 1818 1994 
3 1818 1995 1994 
3 1818 1996 1995 
3 1821 1996 1818 
3 1997 1822 1819 
3 1997 1819 1931 
3 1996 1821 1820 
3 1820 1998 1999 
3 1998 1820 2000 
3 1995 1996 1820 
3 1820 1999 1995 
3 1822 2000 1820 
3 2000 1822 2001 
3 2001 1822 2002 
3 1822 1997 2002 
3 2003 1825 1823 
3 1823 2004 2003 
3 1994 2004 1823 
3 2005 1826 1824 
3 1824 1825 2005 
3 1825 2003 2006 
3 1825 2006 2005 
3 2005 1832 1826 
3 2007 1831 1827 
3 2008 1827 2009 
3 1830 2009 1827 
3 1827 2008 2007 
3 1828 2010 1829 
3 2011 2010 1828 
3 2011 1828 1832 
3 2012 1829 2010 
3 1829 2012 1830 
3 2009 1830 2012 
3 1993 1831 2007 
3 2013 2014 1832 
3 1832 2005 2013 
3 2011 1832 2014 
3 1833 1848 1845 
3 1834 1843 1838 
3 1836 1932 1835 
3 1839 1835 1934 
3 1934 1835 1932 
3 1836 2015 2016 
3 1836 1837 2015 
3 1932 1836 2016 
3 1840 2015 1837 
3 1841 1838 2017 
3 2017 1838 2018 
3 2018 1838 1842 
3 1842 1838 1843 
3 2019 1840 1841 
3 1840 2019 2015 
3 2017 2019 1841 
3 1844 2018 1842 
3 1844 2020 2021 
3 1844 1846 2022 
3 2023 2024 1844 
3 2022 2023 1844 
3 2018 1844 2021 
3 2024 2020 1844 
3 1848 1846 1845 
3 2022 1846 1848 
3 1976 1853 1847 
3 1850 2025 1848 
3 1848 1852 1850 
3 1849 1852 1848 
3 1848 2025 2022 
3 1851 2026 1850 
3 2025 1850 2026 
3 2026 1851 1976 
3 1853 1976 1851 
3 1938 1855 1854 
3 1938 1864 1855 
3 1938 1858 1857 
3 1857 1860 1938 
3 1858 1938 1939 
3 1939 1863 1858 
3 1864 1938 1860 
3 1862 1861 1867 
3 1863 2027 1861 
3 2027 2028 1861 
3 2028 1867 1861 
3 2029 1863 1939 
3 2027 1863 2029 
3 1871 1865 1867 
3 1867 2028 1871 
3 1869 1870 2030 
3 1872 1869 2031 
3 2030 2031 1869 
3 2032 1870 2033 
3 1870 2032 2029 
3 1871 2034 1870 
3 1870 2035 2030 
3 1870 2029 2035 
3 2034 2033 1870 
3 1871 2028 2034 
3 2036 1873 1872 
3 2031 2037 1872 
3 1872 2037 2036 
3 1876 1873 2036 
3 2038 2039 1874 
3 1874 2039 1884 
3 2038 1874 1875 
3 1880 2040 1875 
3 1875 2040 2038 
3 1876 2036 1877 
3 1877 2041 1879 
3 2041 1877 2036 
3 1878 2042 1880 
3 2043 2042 1878 
3 1879 2043 1878 
3 2041 2044 1879 
3 2044 2043 1879 
3 2040 1880 2042 
3 1881 1886 1882 
3 2039 1882 1886 
3 1883 1882 2039 
3 1918 1883 2039 
3 1885 1884 2039 
3 2039 1886 1885 
3 1891 1908 1888 
3 1889 2045 1890 
3 2046 2045 1889 
3 2046 1889 1892 
3 1890 2047 1891 
3 2045 2047 1890 
3 1891 2048 1908 
3 2049 2048 1891 
3 1891 2047 2049 
3 1892 1894 2046 
3 1893 1904 1895 
3 1894 2050 2046 
3 1894 2051 2050 
3 2051 1894 2052 
3 1895 2052 1894 
3 2053 1895 1904 
3 2054 1895 2053 
3 2052 1895 2055 
3 2056 2055 1895 
3 1895 2054 2056 
3 2057 1901 1897 
3 2058 2057 1897 
3 1897 1898 2058 
3 1898 1899 2059 
3 1898 2059 2058 
3 2060 1899 2061 
3 2059 1899 2060 
3 2061 1899 1900 
3 1900 1916 2061 
3 2062 1901 2057 
3 1902 1901 2062 
3 1902 1904 1903 
3 2062 2053 1902 
3 1902 2053 1904 
3 1929 1905 1906 
3 1907 2063 1937 
3 1907 1908 2048 
3 2048 2063 1907 
3 1909 1912 1915 
3 1910 2064 1911 
3 2065 1910 1914 
3 1910 2065 2064 
3 1912 1911 2066 
3 2066 1911 2064 
3 1912 2067 1915 
3 1912 2066 2068 
3 1912 2068 2067 
3 1913 1917 2069 
3 1913 2069 1914 
3 2070 2065 1914 
3 2069 2070 1914 
3 1915 2071 1916 
3 2071 1915 2072 
3 2072 1915 2067 
3 1916 2060 2061 
3 2060 1916 2071 
3 2069 1917 1928 
3 2039 2038 1918 
3 1918 2038 2040 
3 2040 1919 1918 
3 2040 2042 1919 
3 1919 2042 2043 
3 2043 1920 1919 
3 1920 2043 2044 
3 2044 2073 1920 
3 2073 1921 1920 
3 1921 2074 1922 
3 2073 2074 1921 
3 2074 2075 1922 
3 1922 2075 1923 
3 1925 1923 2075 
3 1925 2076 1924 
3 2076 1926 1924 
3 1925 2077 2078 
3 2075 2077 1925 
3 1925 2078 2076 
3 2079 1927 1926 
3 1926 2080 2079 
3 1926 2076 2080 
3 2081 1928 1927 
3 2079 2081 1927 
3 2069 1928 2081 
3 1931 1930 1933 
3 2082 1997 1931 
3 2083 2082 1931 
3 1931 1933 2083 
3 2016 2084 1932 
3 1932 2084 2085 
3 2085 1933 1932 
3 2085 2083 1933 
3 2086 1940 1936 
3 1937 2086 1936 
3 1937 2087 2086 
3 2063 2088 1937 
3 2087 1937 2088 
3 1941 2089 1939 
3 2029 1939 2089 
3 2090 1940 2086 
3 1941 1940 2090 
3 2091 2089 1941 
3 1941 2090 2050 
3 2091 1941 2050 
3 1950 1942 1949 
3 1942 1943 1949 
3 1949 1943 1945 
3 2092 1945 1944 
3 2093 2092 1944 
3 2093 1944 2094 
3 1946 2094 1944 
3 1962 1949 1945 
3 2095 2096 1945 
3 1945 2097 2095 
3 2097 1945 2092 
3 2096 1952 1945 
3 1945 1952 1962 
3 2094 1946 1948 
3 2098 1947 1990 
3 2099 2094 1947 
3 1947 2098 2099 
3 2094 1948 1947 
3 2100 1961 1951 
3 2096 2100 1951 
3 2096 1951 1952 
3 1962 1952 1953 
3 1958 2101 1955 
3 1956 1955 2101 
3 2102 1957 1956 
3 2102 1956 2101 
3 2103 1957 2102 
3 1960 1957 2103 
3 1958 2104 2105 
3 1958 2106 2104 
3 2107 2106 1958 
3 1958 2105 2101 
3 2108 2107 1958 
3 1958 1959 2108 
3 1961 2109 1959 
3 1959 2109 2108 
3 2110 1960 2103 
3 1960 2110 1964 
3 1961 2111 2109 
3 2100 2111 1961 
3 2112 1963 1965 
3 1963 2112 1981 
3 1964 2110 2113 
3 1964 2113 1965 
3 1965 2113 2112 
3 1966 1983 1972 
3 1968 2114 2115 
3 1968 2116 2117 
3 2117 2114 1968 
3 1969 2116 1968 
3 1973 1968 2115 
3 1969 1970 2118 
3 2119 1969 2118 
3 2116 1969 2119 
3 1971 2120 1970 
3 2120 2118 1970 
3 1971 2121 2122 
3 2122 2120 1971 
3 1972 2121 1971 
3 1972 2123 2121 
3 2123 1972 1982 
3 1982 1972 1983 
3 1974 1977 1973 
3 1974 1973 1975 
3 1975 1973 2124 
3 2125 2124 1973 
3 1973 2115 2125 
3 2126 1976 1975 
3 2124 2127 1975 
3 1975 2127 2126 
3 1976 2126 2128 
3 1976 2128 2026 
3 1982 1978 1979 
3 2123 1982 1979 
3 2129 1979 1980 
3 1979 2129 2123 
3 2129 1980 2112 
3 1981 2112 1980 
3 1985 1988 1984 
3 2130 1988 1985 
3 2131 1985 2132 
3 1991 2132 1985 
3 2130 1985 2131 
3 1989 1986 1987 
3 1987 2130 2133 
3 2134 1987 2135 
3 1987 2134 2136 
3 1989 1987 2136 
3 2137 2135 1987 
3 2133 2137 1987 
3 1987 1988 2130 
3 1989 2098 1990 
3 2138 2098 1989 
3 2136 2138 1989 
3 1992 2132 1991 
3 1992 2139 2140 
3 2140 2132 1992 
3 1993 2139 1992 
3 2139 1993 2007 
3 1994 2141 2004 
3 1995 2142 1994 
3 2142 2141 1994 
3 1995 1999 2142 
3 1997 2082 2143 
3 2143 2002 1997 
3 2144 1999 1998 
3 1998 2145 2146 
3 1998 2146 2144 
3 2001 2147 1998 
3 2145 1998 2147 
3 1998 2000 2001 
3 1999 2148 2142 
3 2148 1999 2144 
3 2149 2150 2001 
3 2001 2151 2149 
3 2001 2152 2151 
3 2001 2002 2152 
3 2150 2147 2001 
3 2002 2143 2152 
3 2013 2006 2003 
3 2013 2003 2153 
3 2153 2003 2004 
3 2153 2004 2141 
3 2013 2005 2006 
3 2154 2007 2008 
3 2007 2154 2139 
3 2154 2008 2009 
3 2009 2012 2154 
3 2155 2156 2010 
3 2011 2155 2010 
3 2010 2156 2012 
3 2157 2155 2011 
3 2011 2158 2157 
3 2014 2158 2011 
3 2154 2012 2131 
3 2156 2159 2012 
3 2160 2131 2012 
3 2159 2160 2012 
3 2161 2014 2013 
3 2153 2161 2013 
3 2014 2162 2163 
3 2161 2162 2014 
3 2163 2158 2014 
3 2015 2164 2016 
3 2019 2164 2015 
3 2165 2016 2166 
3 2016 2165 2084 
3 2166 2016 2164 
3 2167 2168 2017 
3 2018 2169 2017 
3 2167 2017 2169 
3 2168 2019 2017 
3 2169 2018 2170 
3 2021 2170 2018 
3 2019 2171 2164 
3 2168 2171 2019 
3 2170 2021 2020 
3 2020 2023 2170 
3 2020 2024 2023 
3 2025 2172 2022 
3 2022 2172 2023 
3 2023 2173 2170 
3 2173 2023 2172 
3 2173 2172 2025 
3 2025 2174 2173 
3 2025 2128 2175 
3 2026 2128 2025 
3 2174 2025 2175 
3 2176 2027 2177 
3 2176 2028 2027 
3 2029 2177 2027 
3 2034 2028 2176 
3 2032 2177 2029 
3 2089 2178 2029 
3 2179 2180 2029 
3 2029 2178 2179 
3 2181 2029 2180 
3 2035 2029 2181 
3 2182 2030 2035 
3 2182 2031 2030 
3 2031 2182 2037 
3 2033 2177 2032 
3 2033 2176 2177 
3 2034 2176 2033 
3 2035 2183 2182 
3 2183 2035 2184 
3 2035 2181 2184 
3 2036 2185 2041 
3 2037 2186 2036 
3 2186 2187 2036 
3 2185 2036 2188 
3 2188 2036 2187 
3 2186 2037 2182 
3 2185 2189 2041 
3 2189 2044 2041 
3 2189 2073 2044 
3 2047 2045 2190 
3 2046 2090 2045 
3 2087 2190 2045 
3 2045 2090 2087 
3 2050 2090 2046 
3 2049 2047 2191 
3 2191 2047 2190 
3 2048 2049 2063 
3 2049 2088 2063 
3 2049 2191 2088 
3 2051 2192 2050 
3 2050 2192 2091 
3 2192 2051 2193 
3 2055 2193 2051 
3 2055 2051 2052 
3 2053 2062 2054 
3 2194 2054 2062 
3 2054 2194 2056 
3 2055 2056 2195 
3 2195 2193 2055 
3 2056 2196 2195 
3 2196 2056 2194 
3 2062 2057 2197 
3 2197 2057 2198 
3 2198 2057 2058 
3 2058 2199 2198 
3 2058 2059 2200 
3 2058 2200 2201 
3 2072 2058 2201 
3 2058 2072 2199 
3 2200 2059 2060 
3 2200 2060 2071 
3 2194 2062 2197 
3 2066 2064 2202 
3 2202 2064 2065 
3 2202 2065 2203 
3 2070 2204 2065 
3 2204 2205 2065 
3 2065 2205 2203 
3 2206 2068 2066 
3 2206 2066 2207 
3 2202 2207 2066 
3 2067 2199 2072 
3 2067 2208 2209 
3 2067 2209 2199 
3 2068 2208 2067 
3 2068 2206 2210 
3 2068 2210 2208 
3 2070 2069 2081 
3 2070 2081 2211 
3 2211 2204 2070 
3 2072 2201 2071 
3 2200 2071 2201 
3 2073 2189 2212 
3 2212 2074 2073 
3 2212 2213 2074 
3 2075 2074 2213 
3 2214 2075 2213 
3 2075 2214 2077 
3 2078 2215 2076 
3 2076 2215 2216 
3 2076 2216 2080 
3 2078 2077 2214 
3 2217 2078 2214 
3 2078 2217 2218 
3 2218 2215 2078 
3 2080 2211 2079 
3 2081 2079 2211 
3 2219 2080 2220 
3 2221 2211 2080 
3 2216 2220 2080 
3 2222 2221 2080 
3 2222 2080 2219 
3 2082 2223 2224 
3 2224 2225 2082 
3 2082 2225 2143 
3 2083 2226 2082 
3 2082 2226 2223 
3 2083 2085 2227 
3 2227 2226 2083 
3 2165 2227 2084 
3 2085 2084 2227 
3 2087 2090 2086 
3 2087 2088 2190 
3 2190 2088 2191 
3 2178 2089 2091 
3 2179 2178 2091 
3 2228 2179 2091 
3 2091 2192 2228 
3 2092 2229 2097 
3 2093 2229 2092 
3 2230 2093 2094 
3 2231 2229 2093 
3 2232 2231 2093 
3 2093 2233 2232 
3 2230 2233 2093 
3 2099 2230 2094 
3 2100 2096 2095 
3 2095 2234 2235 
3 2235 2100 2095 
3 2095 2097 2234 
3 2097 2236 2237 
3 2238 2234 2097 
3 2097 2237 2238 
3 2236 2097 2229 
3 2098 2239 2099 
3 2138 2239 2098 
3 2239 2240 2099 
3 2099 2240 2230 
3 2100 2241 2111 
3 2241 2100 2242 
3 2242 2100 2243 
3 2100 2235 2243 
3 2101 2105 2102 
3 2105 2244 2102 
3 2102 2244 2245 
3 2246 2102 2122 
3 2102 2245 2122 
3 2102 2246 2103 
3 2103 2247 2248 
3 2103 2246 2247 
3 2248 2110 2103 
3 2104 2244 2105 
3 2249 2244 2104 
3 2250 2104 2106 
3 2104 2250 2249 
3 2106 2251 2250 
3 2106 2107 2251 
3 2252 2251 2107 
3 2107 2108 2252 
3 2111 2241 2108 
3 2252 2108 2241 
3 2111 2108 2109 
3 2113 2110 2248 
3 2113 2248 2112 
3 2248 2129 2112 
3 2115 2114 2253 
3 2114 2254 2255 
3 2255 2253 2114 
3 2114 2117 2254 
3 2253 2256 2115 
3 2115 2256 2257 
3 2125 2115 2257 
3 2119 2117 2116 
3 2254 2117 2258 
3 2117 2119 2258 
3 2118 2259 2260 
3 2118 2260 2261 
3 2119 2118 2261 
3 2259 2118 2262 
3 2120 2262 2118 
3 2263 2119 2264 
3 2265 2258 2119 
3 2266 2264 2119 
3 2261 2266 2119 
3 2265 2119 2263 
3 2120 2122 2262 
3 2122 2121 2246 
3 2123 2129 2121 
3 2121 2247 2246 
3 2129 2247 2121 
3 2262 2122 2245 
3 2124 2267 2127 
3 2267 2124 2125 
3 2125 2257 2267 
3 2126 2175 2128 
3 2268 2269 2126 
3 2127 2270 2126 
3 2271 2126 2269 
3 2268 2126 2270 
3 2175 2126 2271 
3 2270 2127 2272 
3 2127 2273 2274 
3 2127 2267 2273 
3 2127 2274 2272 
3 2248 2247 2129 
3 2130 2131 2275 
3 2275 2276 2130 
3 2276 2133 2130 
3 2131 2132 2140 
3 2140 2154 2131 
3 2277 2275 2131 
3 2277 2131 2160 
3 2278 2133 2276 
3 2279 2137 2133 
3 2278 2280 2133 
3 2280 2279 2133 
3 2135 2279 2134 
3 2281 2239 2134 
3 2136 2134 2239 
3 2279 2282 2134 
3 2134 2283 2281 
3 2283 2134 2282 
3 2279 2135 2137 
3 2239 2138 2136 
3 2139 2154 2140 
3 2284 2153 2141 
3 2148 2284 2141 
3 2141 2142 2148 
3 2143 2225 2285 
3 2285 2152 2143 
3 2286 2287 2144 
3 2287 2288 2144 
3 2289 2144 2146 
