NORM_ASCII
2627 5250
   0.0075357   -0.2747483    0.0613549   -0.1011154   -0.9101846    0.4016710
   0.0099043   -0.2752536    0.0584249    0.1516108   -0.9876419   -0.0397188
   0.0088229   -0.2750939    0.0605769   -0.0853736   -0.9760898    0.1999001
   0.0105269   -0.2752928    0.0595655   -0.0917704   -0.9955366   -0.0220225
   0.0036441   -0.2664707    0.0616026   -0.6268820   -0.2396645    0.7413365
   0.0034300   -0.2661801    0.0614647   -0.7159501   -0.0697559    0.6946579
   0.0043382   -0.2672279    0.0617492   -0.4721289   -0.4699579    0.7458108
   0.0041665   -0.2667095    0.0618865   -0.3265395   -0.3568161    0.8752452
   0.0037170   -0.2664671    0.0616641   -0.6086352   -0.2032451    0.7669776
   0.0043958   -0.2680676    0.0606505   -0.0828332   -0.7261821    0.6824941
   0.0045425   -0.2682948    0.0605487   -0.2695801   -0.4440357    0.8544933
   0.0043863   -0.2688582    0.0602347   -0.0166962   -0.1856923    0.9824661
   0.0046375   -0.2685484    0.0604750   -0.3553028   -0.3361458    0.8722189
   0.0045175   -0.2691273    0.0602351   -0.3561227    0.1065564    0.9283439
   0.0044687   -0.2674644    0.0616558   -0.4350369   -0.6199172    0.6530280
   0.0045336   -0.2678649    0.0610871   -0.4532714   -0.7797763    0.4318496
   0.0042307   -0.2624134    0.0594952   -0.9165451    0.3407648   -0.2093426
   0.0042678   -0.2621873    0.0597727   -0.8955412    0.3808576   -0.2301160
   0.0039017   -0.2625582    0.0604756   -0.9172838    0.2997185   -0.2622200
   0.0040608   -0.2626798    0.0600861   -0.9067331    0.1972200   -0.3727456
   0.0044000   -0.2620667    0.0595551   -0.7390830    0.5772377   -0.3472075
   0.0036704   -0.2650593    0.0617912   -0.7340227    0.0560014    0.6768120
   0.0038402   -0.2641897    0.0617535   -0.7653176    0.2282053    0.6018400
   0.0038167   -0.2642874    0.0617604   -0.7338783    0.1790822    0.6552497
   0.0038093   -0.2627268    0.0608702   -0.9853874    0.1136719    0.1268476
   0.0039205   -0.2628437    0.0612994   -0.9045157    0.1969712    0.3782243
   0.0038828   -0.2631670    0.0612986   -0.9399750    0.1604714    0.3011575
   0.0039339   -0.2637802    0.0617278   -0.7864480    0.2082416    0.5814938
   0.0040192   -0.2633462    0.0617087   -0.8389610    0.1662398    0.5181784
   0.0039713   -0.2635985    0.0617187   -0.7853324    0.1708652    0.5950278
   0.0038167   -0.2626905    0.0607719   -0.9695284    0.2253325   -0.0961245
   0.0104644   -0.2668792    0.0550263    0.4041137    0.4423604   -0.8006306
   0.0116488   -0.2667183    0.0556760    0.4816187    0.3856653   -0.7869598
   0.0118164   -0.2650403    0.0563760    0.5180142    0.2839543   -0.8068650
   0.0116364   -0.2656195    0.0560824    0.5063846    0.3057775   -0.8062721
   0.0115841   -0.2645104    0.0564233    0.3616209    0.3275275   -0.8729009
   0.0088900   -0.2612195    0.0578255   -0.0569356    0.5551718   -0.8297847
   0.0102773   -0.2621321    0.0572949    0.0956323    0.5192647   -0.8492459
   0.0083273   -0.2611503    0.0579827   -0.2114695    0.5110827   -0.8331117
   0.0097905   -0.2627878    0.0569302    0.0476512    0.5027459   -0.8631199
   0.0064678   -0.2604994    0.0596941   -0.5202160    0.8072972   -0.2786513
   0.0070428   -0.2604182    0.0591200   -0.3765150    0.7955226   -0.4747422
   0.0051176   -0.2614702    0.0603013   -0.5635185    0.8249087    0.0444127
   0.0045028   -0.2617606    0.0600303   -0.5830278    0.8111494   -0.0459910
   0.0046882   -0.2617083    0.0604281   -0.4923672    0.8461134    0.2041241
   0.0058090   -0.2608852    0.0598305   -0.6172101    0.7622813   -0.1948818
   0.0044478   -0.2618440    0.0598494   -0.7257178    0.6453278   -0.2385072
   0.0079947   -0.2607485    0.0583015   -0.2076898    0.6332595   -0.7455517
   0.0077691   -0.2603755    0.0587957   -0.2491886    0.8408702   -0.4804606
   0.0103402   -0.2639510    0.0563224    0.2075147    0.5002544   -0.8406445
   0.0104734   -0.2639272    0.0563824    0.3899342    0.4526124   -0.8019310
   0.0106621   -0.2638789    0.0564179    0.1462833    0.4074829   -0.9014205
   0.0103122   -0.2637084    0.0564921    0.9561876    0.1513979   -0.2505672
   0.0101654   -0.2634814    0.0565942    0.3349231    0.4454166   -0.8303196
   0.0103122   -0.2637084    0.0564921    0.8682548    0.2925231   -0.4007041
   0.0046763   -0.2692737    0.0604008   -0.5883594    0.2232554    0.7771681
   0.0046354   -0.2694622    0.0604114   -0.5102907    0.2607345    0.8195248
   0.0053274   -0.2697507    0.0609913   -0.6403095    0.1494735    0.7534331
   0.0056011   -0.2701943    0.0613024   -0.6751461    0.0903918    0.7321250
   0.0065333   -0.2704212    0.0622485   -0.7399390   -0.0689153    0.6691345
   0.0062686   -0.2695923    0.0619595   -0.7148337    0.0106466    0.6992134
   0.0065633   -0.2721572    0.0618960   -0.6330414   -0.1788975    0.7531629
   0.0077014   -0.2710426    0.0633339   -0.6667363   -0.1145911    0.7364317
   0.0070542   -0.2718926    0.0624881   -0.7215161   -0.1770711    0.6693731
   0.0073135   -0.2713339    0.0629120   -0.6799346   -0.1735499    0.7124391
   0.0069717   -0.2738267    0.0617141   -0.6958743   -0.2374809    0.6777623
   0.0070295   -0.2741147    0.0616960   -0.6677677   -0.2769497    0.6909306
   0.0070067   -0.2727413    0.0621975   -0.6915767   -0.2630120    0.6727156
   0.0072907   -0.2738466    0.0620648   -0.6629035   -0.3033985    0.6844767
   0.0072610   -0.2719075    0.0627223   -0.6922377   -0.1893778    0.6963785
   0.0070277   -0.2724647    0.0623169   -0.6904997   -0.2274692    0.6866352
   0.0072740   -0.2763607    0.0541757    0.5001712   -0.8658804    0.0089371
   0.0087949   -0.2748879    0.0531960    0.6368750   -0.7624498   -0.1142830
   0.0094873   -0.2743293    0.0527030    0.5852118   -0.7999441   -0.1327276
   0.0099909   -0.2737399    0.0519475    0.5574134   -0.7931633   -0.2453207
   0.0090844   -0.2741605    0.0509404    0.5347329   -0.7577335   -0.3740329
   0.0075839   -0.2760882    0.0536921    0.6513348   -0.7532870   -0.0912231
   0.0080933   -0.2755627    0.0535645    0.6769558   -0.7287229   -0.1034106
   0.0093393   -0.2734503    0.0503390    0.3816976   -0.5470578   -0.7450065
   0.0094165   -0.2733487    0.0503009    0.3379063   -0.5204060   -0.7842174
   0.0091062   -0.2738147    0.0504495    0.5237256   -0.5799709   -0.6239753
   0.0095916   -0.2735936    0.0506838    0.5630339   -0.6641365   -0.4918490
   0.0094228   -0.2737831    0.0507691    0.5883903   -0.6988453   -0.4067089
   0.0090319   -0.2739184    0.0504857    0.4208919   -0.6446600   -0.6381720
   0.0085299   -0.2709030    0.0504908    0.6456674    0.7086748    0.2844181
   0.0084850   -0.2706771    0.0506924    0.9629803   -0.2631830   -0.0583413
   0.0086015   -0.2708682    0.0495806   -0.2113454    0.6027773   -0.7694106
   0.0086988   -0.2706403    0.0499079   -0.9558211    0.2443736   -0.1633633
   0.0087317   -0.2709031    0.0503728   -0.3758722    0.8332969    0.4053843
   0.0088042   -0.2707591    0.0503405   -0.9572569    0.0113337    0.2890170
   0.0089765   -0.2710449    0.0495484    0.2213747    0.1572188   -0.9624321
   0.0091332   -0.2713040    0.0496066    0.4569032    0.0320689   -0.8889382
   0.0094915   -0.2718825    0.0497522    0.1760659    0.1026110   -0.9790157
   0.0095631   -0.2712757    0.0498659    0.2641706    0.1910184   -0.9453708
   0.0093415   -0.2722343    0.0497239    0.0085336   -0.2344845   -0.9720824
   0.0095236   -0.2729045    0.0500317    0.0316738   -0.5390900   -0.8416524
   0.0096698   -0.2730502    0.0501737    0.2922266   -0.6434960   -0.7074720
   0.0094986   -0.2732328    0.0502612    0.3478373   -0.5795804   -0.7369503
   0.0092557   -0.2739779    0.0508531    0.5916315   -0.6972850   -0.4046799
   0.0117115   -0.2683011    0.0549195    0.4740650    0.4937462   -0.7290247
   0.0117946   -0.2685365    0.0547796    0.4572175    0.5980663   -0.6582316
   0.0090563   -0.2691203    0.0503092    0.2107163    0.7628149   -0.6113199
   0.0090291   -0.2693381    0.0500572    0.0916880    0.5978806   -0.7963241
   0.0090781   -0.2695847    0.0499242    0.2912249    0.3862712   -0.8752043
   0.0089032   -0.2699242    0.0498392    0.0649621    0.2609395   -0.9631669
   0.0089184   -0.2699938    0.0498252    0.0302567    0.1606675   -0.9865447
   0.0089231   -0.2702191    0.0498066   -0.0781256    0.1856033   -0.9795141
   0.0086997   -0.2703348    0.0499292   -0.8599067   -0.2378992   -0.4516242
   0.0088201   -0.2705350    0.0497204   -0.3938583    0.3952213   -0.8298649
   0.0088274   -0.2705890    0.0508415   -0.3266270   -0.9448601   -0.0235395
   0.0089538   -0.2708524    0.0507489   -0.9045088   -0.3435020    0.2527257
   0.0090166   -0.2706909    0.0512263   -0.8436063   -0.5367868   -0.0137255
   0.0085965   -0.2705969    0.0509763    0.5813720   -0.7645313   -0.2783857
   0.0090608   -0.2691097    0.0503276    0.3531594    0.8111665   -0.4661409
   0.0092662   -0.2692994    0.0501735    0.4478121    0.6744947   -0.5869593
   0.0094521   -0.2692908    0.0503220    0.4288535    0.7672977   -0.4768008
   0.0095342   -0.2692399    0.0505237    0.4527136    0.8474296   -0.2773329
   0.0098080   -0.2694927    0.0503455    0.4197286    0.6870923   -0.5930701
   0.0099941   -0.2697001    0.0502219    0.4037434    0.6907987   -0.5998237
   0.0096089   -0.2692948    0.0504760    0.4787483    0.7703485   -0.4211451
   0.0101751   -0.2699089    0.0501011    0.2989374    0.7102219   -0.6373550
   0.0103773   -0.2697443    0.0504971    0.4150037    0.7736284   -0.4788226
   0.0107189   -0.2700592    0.0502747    0.4257354    0.7906051   -0.4401057
   0.0107490   -0.2700855    0.0502554    0.4982407    0.6575763   -0.5651103
   0.0108822   -0.2703200    0.0501606    0.5814016    0.3926534   -0.7125977
   0.0112099   -0.2703218    0.0504713    0.5622601    0.5494358   -0.6180485
   0.0117731   -0.2703745    0.0511432    0.4712189    0.8319247   -0.2930086
   0.0115155   -0.2703352    0.0507942    0.5455354    0.7029325   -0.4563737
   0.0120461   -0.2704048    0.0514840    0.3890430    0.8909190   -0.2343263
   0.0128582   -0.2707597    0.0514863    0.4234999    0.8073326   -0.4109282
   0.0123840   -0.2700088    0.0533248    0.3354543    0.8836617   -0.3265156
   0.0131010   -0.2707248    0.0518491    0.3247237    0.9001544   -0.2903045
   0.0121373   -0.2694323    0.0541069    0.3798968    0.6940289   -0.6115573
   0.0133271   -0.2697838    0.0542968    0.2934716    0.7676699   -0.5696993
   0.0134336   -0.2703207    0.0534271    0.2253257    0.8954968   -0.3838149
   0.0119025   -0.2692171    0.0541655    0.4780631    0.6524974   -0.5879650
   0.0119477   -0.2687590    0.0546740    0.5547344    0.5860548   -0.5906009
   0.0076756   -0.2760735    0.0546194    0.4971136   -0.8669092    0.0366958
   0.0086266   -0.2754955    0.0556373    0.5786998   -0.8077118   -0.1127311
   0.0091409   -0.2751303    0.0553621    0.4515631   -0.8698376   -0.1986788
   0.0078054   -0.2759523    0.0543977    0.6440309   -0.7571965   -0.1089848
   0.0097818   -0.2751331    0.0565695    0.3135183   -0.9348709   -0.1665015
   0.0072653   -0.2743724    0.0617676   -0.5412838   -0.5260835    0.6559329
   0.0072598   -0.2746014    0.0615266   -0.3519638   -0.7526580    0.5564418
   0.0089103   -0.2747263    0.0616582   -0.1471777   -0.8980430    0.4145571
   0.0076787   -0.2745592    0.0617985   -0.1928343   -0.8274277    0.5274261
   0.0101021   -0.2750607    0.0566624    0.1087698   -0.9769881   -0.1834756
   0.0100535   -0.2749497    0.0618775   -0.2244455   -0.9344773    0.2763628
   0.0099254   -0.2752019    0.0604266   -0.1472085   -0.9845717    0.0945950
   0.0110043   -0.2752906    0.0581555   -0.1633928   -0.9809989   -0.1046134
   0.0112455   -0.2754322    0.0596376   -0.2869174   -0.9579452   -0.0044073
   0.0042309   -0.2667015    0.0619202   -0.3593561   -0.2983609    0.8842194
   0.0044152   -0.2672180    0.0617947   -0.3406854   -0.4102738    0.8459367
   0.0041106   -0.2664343    0.0619388    0.7707139   -0.1628502    0.6160194
   0.0041106   -0.2664343    0.0619388    0.4909909   -0.2316971    0.8397883
   0.0039691   -0.2661633    0.0619204   -0.5441556   -0.1479826    0.8258304
   0.0038444   -0.2652707    0.0619257   -0.5648314   -0.0501654    0.8236801
   0.0045932   -0.2680509    0.0607878   -0.5102111   -0.6959720    0.5052798
   0.0045952   -0.2682872    0.0605742   -0.4721509   -0.5080547    0.7203846
   0.0046750   -0.2685425    0.0604912   -0.4947312   -0.3613475    0.7903601
   0.0046951   -0.2688225    0.0604219   -0.5542173   -0.2589214    0.7910770
   0.0049709   -0.2690887    0.0605489   -0.6464346    0.0133427    0.7628528
   0.0046398   -0.2676782    0.0615407   -0.5302767   -0.6737424    0.5146627
   0.0048431   -0.2674090    0.0618491   -0.3757672   -0.3721610    0.8487021
   0.0049250   -0.2676646    0.0617697   -0.5405446   -0.5088676    0.6699741
   0.0046875   -0.2680301    0.0609852   -0.6202569   -0.7022470    0.3494718
   0.0049626   -0.2681178    0.0613206   -0.6477265   -0.6461641    0.4036364
   0.0041826   -0.2621902    0.0601872   -0.8565978    0.4762997   -0.1984408
   0.0043286   -0.2619343    0.0601200   -0.7750480    0.6303907   -0.0436819
   0.0040738   -0.2622119    0.0605404   -0.7897730    0.5997690   -0.1285911
   0.0039477   -0.2623337    0.0607686   -0.8709088    0.4845856   -0.0818208
   0.0040459   -0.2649329    0.0620380   -0.5036302    0.0340555    0.8632479
   0.0041027   -0.2639332    0.0619059   -0.6247866    0.1730352    0.7613806
   0.0039440   -0.2642821    0.0618649   -0.6226187    0.1550589    0.7670089
   0.0038332   -0.2626246    0.0608633   -0.9418566    0.3027880    0.1456899
   0.0040076   -0.2625412    0.0612699   -0.8334513    0.3652513    0.4146690
   0.0041157   -0.2629455    0.0616806   -0.7209228    0.2996972    0.6248615
   0.0042450   -0.2626409    0.0616267   -0.5548934    0.5004700    0.6645472
   0.0040343   -0.2632613    0.0617058   -0.7673295    0.2078709    0.6066261
   0.0042519   -0.2639283    0.0620339   -0.4941073    0.1124213    0.8621017
   0.0043031   -0.2635820    0.0620283   -0.5386977    0.1423153    0.8303921
   0.0039351   -0.2623571    0.0608227   -0.8546734    0.4865486    0.1811185
   0.0123510   -0.2672138    0.0559686    0.6106616    0.4201912   -0.6712166
   0.0120880   -0.2672077    0.0557072    0.4859987    0.4537101   -0.7469621
   0.0120499   -0.2682703    0.0551516    0.5400433    0.4416954   -0.7164205
   0.0122607   -0.2666834    0.0561461    0.7341716    0.2923426   -0.6128033
   0.0117341   -0.2642226    0.0566287    0.5765374    0.3180398   -0.7526322
   0.0114865   -0.2642504    0.0564776    0.3466342    0.3882636   -0.8538713
   0.0101476   -0.2611585    0.0579438    0.1329373    0.6128097   -0.7789685
   0.0085660   -0.2608209    0.0581579   -0.1063088    0.6352910   -0.7649208
   0.0088563   -0.2607413    0.0582005   -0.0042644    0.6923827   -0.7215179
   0.0110958   -0.2627385    0.0571273    0.3045455    0.4966659   -0.8127577
   0.0105428   -0.2628484    0.0569209    0.1064759    0.4841332   -0.8684918
   0.0109181   -0.2615170    0.0579130    0.2956240    0.6077576   -0.7370462
   0.0102503   -0.2634564    0.0566066    0.0372640    0.4321673   -0.9010232
   0.0066796   -0.2603980    0.0596095   -0.4336383    0.8662805   -0.2480240
   0.0065510   -0.2604111    0.0599325   -0.4356036    0.8993322   -0.0380921
   0.0059680   -0.2607564    0.0602494   -0.5551593    0.8256853    0.1002098
   0.0071743   -0.2602156    0.0595545   -0.3069031    0.9311900   -0.1967125
   0.0045382   -0.2620423    0.0609948   -0.4440829    0.8073516    0.3885534
   0.0043200   -0.2619984    0.0606230   -0.5833047    0.7916309    0.1818686
   0.0080306   -0.2602878    0.0587919   -0.1770073    0.8195419   -0.5449950
   0.0080202   -0.2599682    0.0596445   -0.2391378    0.9340553   -0.2652429
   0.0077761   -0.2599820    0.0597487   -0.2393437    0.9516395   -0.1926054
   0.0103122   -0.2637084    0.0564921    0.6206930    0.3476377   -0.7027718
   0.0107918   -0.2630514    0.0568442    0.1524499    0.4568780   -0.8763684
   0.0110582   -0.2637955    0.0565522    0.2723297    0.4190054   -0.8661818
   0.0050812   -0.2691804    0.0606732   -0.6783402    0.1270898    0.7236731
   0.0056587   -0.2696801    0.0613050   -0.5809443    0.1250677    0.8042772
   0.0057590   -0.2697602    0.0614208   -0.7084174    0.1087151    0.6973706
   0.0059558   -0.2697692    0.0616274   -0.7381272    0.1255231    0.6628818
   0.0064923   -0.2692250    0.0623572   -0.7227695   -0.0720130    0.6873270
   0.0071574   -0.2704081    0.0628894   -0.6859069   -0.0700499    0.7243099
   0.0060118   -0.2694349    0.0616184   -0.0891321   -0.1868577    0.9783352
   0.0062655   -0.2694748    0.0619697   -0.8169965   -0.1201825    0.5639795
   0.0060118   -0.2694349    0.0616184    0.3707570    0.1831278    0.9104963
   0.0075057   -0.2701490    0.0632065   -0.6161178    0.0416109    0.7865541
   0.0078211   -0.2707431    0.0634824   -0.5638198   -0.0652242    0.8233183
   0.0080945   -0.2727294    0.0631816   -0.5832830   -0.2161550    0.7829802
   0.0073567   -0.2741168    0.0620070   -0.5858346   -0.3789111    0.7163967
   0.0075545   -0.2735767    0.0624322   -0.6294983   -0.3074898    0.7135698
   0.0077375   -0.2740890    0.0622888   -0.4610597   -0.4723344    0.7512152
   0.0074819   -0.2724721    0.0627641   -0.6593072   -0.2113515    0.7215570
   0.0092698   -0.2746201    0.0537600    0.5536462   -0.8194094   -0.1484723
   0.0087447   -0.2749806    0.0535941    0.6322674   -0.7638323   -0.1296079
   0.0097015   -0.2742389    0.0530867    0.5131171   -0.8364997   -0.1922993
   0.0094791   -0.2744837    0.0537023    0.4806158   -0.8577363   -0.1824744
   0.0102560   -0.2740222    0.0532801    0.3864245   -0.8899607   -0.2421693
   0.0100839   -0.2735928    0.0516137    0.5452100   -0.7665208   -0.3393995
   0.0110117   -0.2734095    0.0523788    0.3941506   -0.8622834   -0.3179822
   0.0082215   -0.2755003    0.0538636    0.7463676   -0.6579065   -0.1004712
   0.0097581   -0.2733970    0.0506003    0.5393800   -0.6411498   -0.5458902
   0.0085194   -0.2710751    0.0509705    0.9261147    0.3055265    0.2212807
   0.0088028   -0.2712287    0.0507862    0.3384806    0.6082294    0.7179749
   0.0089749   -0.2710203    0.0507247   -0.7119927    0.3882671    0.5850770
   0.0085515   -0.2707601    0.0509908    0.9325074   -0.2132651   -0.2914584
   0.0088766   -0.2707845    0.0495988    0.0446580    0.3297293   -0.9430187
   0.0091112   -0.2707276    0.0496603    0.4381310    0.2974706   -0.8482644
   0.0091610   -0.2710072    0.0496112    0.4958081    0.1003789   -0.8626114
   0.0094213   -0.2710045    0.0498470    0.6176316    0.1874410   -0.7638043
   0.0095549   -0.2712596    0.0498656    0.4797944    0.2221636   -0.8487878
   0.0096230   -0.2718505    0.0497839    0.1686578    0.1522584   -0.9738439
   0.0096110   -0.2721480    0.0497342    0.1700339   -0.0063443   -0.9854178
   0.0098752   -0.2712003    0.0499467   -0.0932927    0.2661211   -0.9594144
   0.0098151   -0.2709502    0.0500624    0.0104783    0.2244998   -0.9744178
   0.0100706   -0.2717218    0.0498367    0.1326587    0.1114198   -0.9848793
   0.0099059   -0.2720694    0.0497848    0.1870964   -0.0986537   -0.9773752
   0.0096400   -0.2721909    0.0497497    0.2261526   -0.2347686   -0.9453775
   0.0095256   -0.2725164    0.0498132    0.0800159   -0.3849788   -0.9194503
   0.0097820   -0.2728162    0.0500223    0.2568227   -0.4388757   -0.8610634
   0.0098417   -0.2728694    0.0500862    0.3694626   -0.6103485   -0.7006940
   0.0100892   -0.2729988    0.0504348    0.5132020   -0.6859594   -0.5158327
   0.0099214   -0.2731919    0.0505192    0.5327913   -0.6732247   -0.5127396
   0.0121877   -0.2685040    0.0550543    0.9063408    0.2728690   -0.3226281
   0.0094272   -0.2695207    0.0500636    0.9569526    0.1655556   -0.2383968
   0.0095118   -0.2697766    0.0499886    0.2564882    0.2469483   -0.9344679
   0.0094272   -0.2695207    0.0500636    0.8870310    0.1764695   -0.4266550
   0.0090028   -0.2701909    0.0498041    0.1729786    0.1165666   -0.9780034
   0.0090151   -0.2704747    0.0497345    0.2501112    0.3443995   -0.9048941
   0.0091233   -0.2704580    0.0497856    0.3300818    0.2137373   -0.9194359
   0.0088114   -0.2706324    0.0513505    0.2338109   -0.7894662   -0.5675171
   0.0090020   -0.2708890    0.0508961   -0.9661223   -0.1147383    0.2311772
   0.0090792   -0.2709614    0.0511704   -0.9917900   -0.0657916   -0.1096543
   0.0089340   -0.2707916    0.0514349   -0.5084907   -0.3358211   -0.7928817
   0.0094272   -0.2695207    0.0500636    0.8199022    0.3928592   -0.4164397
   0.0098695   -0.2697141    0.0501429    0.2683532    0.5102985   -0.8170569
   0.0095192   -0.2697764    0.0499917    0.5194184    0.3672732   -0.7715665
   0.0099052   -0.2699583    0.0499867    0.1189862    0.4584236   -0.8807327
   0.0102783   -0.2700477    0.0500309    0.2781183    0.6031780   -0.7475470
   0.0102704   -0.2698972    0.0501542    0.3837825    0.6910697   -0.6124816
   0.0103393   -0.2701275    0.0499893    0.3884884    0.5230597   -0.7586074
   0.0107023   -0.2700873    0.0502176    0.4007109    0.6869474   -0.6062459
   0.0107334   -0.2703306    0.0500529    0.4521520    0.3321738   -0.8277796
   0.0109129   -0.2706093    0.0501223    0.5575667    0.1501787   -0.8164347
   0.0109025   -0.2706097    0.0501158    0.4511245    0.0244964   -0.8921248
   0.0113195   -0.2705692    0.0503898    0.4807487    0.3069155   -0.8213912
   0.0113410   -0.2705667    0.0504052    0.5421146    0.4695580   -0.6968694
   0.0116816   -0.2705526    0.0506815    0.5303909    0.6105945   -0.5880985
   0.0123117   -0.2705701    0.0513169    0.4392323    0.8003653   -0.4080324
   0.0124484   -0.2706889    0.0512283    0.3822915    0.8050558   -0.4535839
   0.0125337   -0.2707578    0.0511735    0.4585718    0.6818854   -0.5698633
   0.0126821   -0.2709838    0.0510707    0.5236445    0.4846128   -0.7006760
   0.0130347   -0.2709718    0.0513678    0.5190538    0.5739263   -0.6333969
   0.0133755   -0.2709664    0.0516715    0.4531481    0.7139676   -0.5337669
   0.0136589   -0.2707754    0.0522790    0.3072163    0.8733524   -0.3779863
   0.0140196   -0.2708560    0.0523075    0.1969111    0.9116666   -0.3606800
   0.0121815   -0.2687371    0.0548282    0.3553375    0.6540760   -0.6677723
   0.0123611   -0.2687162    0.0549379    0.4732982    0.6034512   -0.6417441
   0.0131644   -0.2690774    0.0549447    0.3687766    0.6586223   -0.6559119
   0.0134574   -0.2689779    0.0552829    0.4513854    0.7520687   -0.4802541
   0.0138908   -0.2702841    0.0537455    0.1923125    0.8627508   -0.4676292
   0.0136709   -0.2699107    0.0542515    0.1772204    0.8014849   -0.5711523
   0.0142241   -0.2707377    0.0526988    0.1590983    0.9278637   -0.3372783
   0.0142172   -0.2703358    0.0537366    0.1767164    0.9002959   -0.3977921
   0.0121877   -0.2685040    0.0550543    0.8939904    0.3095502   -0.3239750
   0.0083957   -0.2755053    0.0547662    0.6086765   -0.7726594   -0.1803063
   0.0103288   -0.2746813    0.0557040    0.2302761   -0.9137106   -0.3348221
   0.0103121   -0.2744965    0.0552640    0.2538139   -0.8947104   -0.3675212
   0.0089922   -0.2750118    0.0546115    0.5319635   -0.8183423   -0.2175564
   0.0082169   -0.2755767    0.0543634    0.6678583   -0.7352546   -0.1156111
   0.0083009   -0.2755343    0.0545609    0.7654147   -0.6296377   -0.1330291
   0.0074642   -0.2743635    0.0619265   -0.4237846   -0.6135990    0.6662604
   0.0080698   -0.2744388    0.0620694   -0.1211016   -0.8317528    0.5417764
   0.0083455   -0.2742494    0.0624241   -0.2350014   -0.7457301    0.6234267
   0.0088858   -0.2742695    0.0626092   -0.2408523   -0.8292620    0.5042963
   0.0094209   -0.2743371    0.0627939   -0.2764824   -0.7919700    0.5443722
   0.0077304   -0.2743372    0.0620993   -0.3293802   -0.6546630    0.6803859
   0.0113265   -0.2749905    0.0567262   -0.0193330   -0.9465188   -0.3220691
   0.0108291   -0.2751347    0.0573894   -0.1363429   -0.9550458   -0.2632454
   0.0108448   -0.2752401    0.0613938   -0.2779438   -0.9478668    0.1558712
   0.0107272   -0.2751238    0.0618332   -0.2855467   -0.9220387    0.2613576
   0.0105266   -0.2749915    0.0621545   -0.2649161   -0.9023722    0.3399176
   0.0106563   -0.2752553    0.0610005   -0.2049858   -0.9754323    0.0807010
   0.0115991   -0.2754986    0.0584208   -0.3868494   -0.9166805   -0.1002213
   0.0128294   -0.2761407    0.0596657   -0.3758942   -0.9224006    0.0887730
   0.0111804   -0.2754209    0.0606820   -0.3154948   -0.9477466    0.0473217
   0.0118677   -0.2756646    0.0600216   -0.3857910   -0.9211711    0.0510805
   0.0044658   -0.2663713    0.0620888   -0.1176627   -0.1468320    0.9821384
   0.0050011   -0.2668241    0.0621061   -0.2642509   -0.1925525    0.9450370
   0.0041106   -0.2664343    0.0619388    0.9428403   -0.0650448    0.3268353
   0.0040729   -0.2661502    0.0619808   -0.2671321   -0.1164143    0.9566024
   0.0048779   -0.2682932    0.0608551   -0.6314539   -0.5703640    0.5253102
   0.0049874   -0.2685384    0.0607737   -0.6008435   -0.4485077    0.6616856
   0.0050892   -0.2690942    0.0606746   -0.7019056   -0.1027968    0.7048130
   0.0053419   -0.2687941    0.0609413   -0.6640254   -0.2747698    0.6953933
   0.0059274   -0.2672220    0.0623337   -0.3907902   -0.0987328    0.9151693
   0.0050025   -0.2676613    0.0618323   -0.5054772   -0.2742486    0.8180957
   0.0050893   -0.2679208    0.0617632   -0.6381836   -0.4588580    0.6181998
   0.0052873   -0.2685059    0.0611031   -0.6167481   -0.6675904    0.4170670
   0.0053555   -0.2683881    0.0615740   -0.6407933   -0.6467163    0.4136931
   0.0052046   -0.2681639    0.0616782   -0.6483982   -0.5194512    0.5565522
   0.0042053   -0.2620911    0.0603214   -0.7682051    0.6360131   -0.0731315
   0.0041368   -0.2621461    0.0607197   -0.5883235    0.7922806    0.1617619
   0.0039615   -0.2623164    0.0608104   -0.6924946    0.7034942    0.1598346
   0.0041828   -0.2658277    0.0620538   -0.3035182   -0.0588732    0.9510051
   0.0042105   -0.2652097    0.0620947   -0.2445697    0.0058912    0.9696138
   0.0041238   -0.2646045    0.0620608   -0.4615698    0.0988494    0.8815794
   0.0040420   -0.2624749    0.0612544   -0.6468150    0.5789340    0.4964532
   0.0045356   -0.2628959    0.0619410   -0.2895699    0.4117577    0.8640630
   0.0044012   -0.2631867    0.0619990   -0.4944851    0.2623085    0.8286608
   0.0047054   -0.2627099    0.0618547   -0.2118500    0.5991962    0.7720644
   0.0044132   -0.2624495    0.0615415   -0.3156908    0.6842361    0.6573890
   0.0044953   -0.2638788    0.0621196   -0.2066319    0.0906337    0.9742119
   0.0044415   -0.2632399    0.0620265   -0.2045126    0.2376438    0.9495789
   0.0041611   -0.2623062    0.0611969   -0.5219525    0.7198496    0.4575829
   0.0125238   -0.2681970    0.0553821    0.4989954    0.5103721   -0.7003742
   0.0124094   -0.2672139    0.0560213    0.7563542    0.4143239   -0.5062253
   0.0126280   -0.2677071    0.0558585    0.7475216    0.5284504   -0.4024322
   0.0121411   -0.2682564    0.0551934    0.3148820    0.4817319   -0.8177919
   0.0121877   -0.2685040    0.0550543    0.7356976    0.3971438   -0.5486582
   0.0121742   -0.2656025    0.0565358    0.7223302    0.2169049   -0.6566516
   0.0125327   -0.2670173    0.0564659    0.9054884    0.3036683   -0.2964395
   0.0124321   -0.2664628    0.0565640    0.9021421    0.1865256   -0.3890344
   0.0123034   -0.2653125    0.0567208    0.7639006    0.2014885   -0.6130727
   0.0120291   -0.2639367    0.0569792    0.6671841    0.3123631   -0.6762356
   0.0118379   -0.2639509    0.0568378    0.4126299    0.4280961   -0.8040337
   0.0100899   -0.2606960    0.0583439    0.1680960    0.6682955   -0.7246550
   0.0101461   -0.2604518    0.0585893    0.1962425    0.7100074   -0.6762975
   0.0086331   -0.2601330    0.0589156   -0.0944292    0.8700767   -0.4837868
   0.0095174   -0.2601300    0.0588538    0.0444860    0.8265723   -0.5610697
   0.0112674   -0.2622074    0.0575475    0.3282764    0.5070073   -0.7969807
   0.0115569   -0.2619254    0.0579007    0.4500675    0.5267085   -0.7211223
   0.0115958   -0.2607305    0.0589679    0.4712281    0.6463091   -0.6001905
   0.0116760   -0.2614268    0.0583690    0.5322333    0.5757037   -0.6207197
   0.0112446   -0.2603073    0.0592036    0.3765775    0.7203352   -0.5825003
   0.0069284   -0.2603260    0.0607230   -0.3997388    0.8620424    0.3115957
   0.0075244   -0.2600193    0.0603960   -0.2612238    0.9475887    0.1839506
   0.0058014   -0.2610414    0.0608292   -0.5144316    0.7295034    0.4507605
   0.0063744   -0.2607568    0.0610167   -0.4485879    0.7484726    0.4884236
   0.0077488   -0.2599681    0.0602682   -0.2608715    0.9584062    0.1157737
   0.0049665   -0.2620171    0.0612487   -0.3875788    0.6488350    0.6548250
   0.0043467   -0.2621654    0.0610981   -0.4066304    0.8231973    0.3962297
   0.0046012   -0.2623159    0.0614409   -0.2479924    0.7632974    0.5965542
   0.0082903   -0.2598834    0.0596538   -0.1996893    0.9114130   -0.3597923
   0.0079554   -0.2599124    0.0601513   -0.2546251    0.9649835   -0.0630307
   0.0054110   -0.2688671    0.0610051   -0.6837996    0.0107918    0.7295901
   0.0057031   -0.2694236    0.0612970   -0.6532233    0.1201362    0.7475738
   0.0060118   -0.2694349    0.0616184    0.7467380    0.1218176    0.6538677
   0.0059774   -0.2691484    0.0616590   -0.7867890   -0.2672093    0.5563832
   0.0064644   -0.2689361    0.0623941   -0.6389738   -0.2525567    0.7265862
   0.0069592   -0.2688975    0.0627447   -0.4965481   -0.0291466    0.8675197
   0.0075736   -0.2697885    0.0631922   -0.5208182    0.1342338    0.8430479
   0.0057360   -0.2691017    0.0613009   -0.7877851   -0.2286999    0.5719187
   0.0057333   -0.2692145    0.0612944   -0.5257426    0.0488570    0.8492395
   0.0079238   -0.2700940    0.0634683   -0.4561042    0.1738687    0.8727764
   0.0083535   -0.2706641    0.0637569   -0.2901496    0.0820502    0.9534574
   0.0083294   -0.2721446    0.0635087   -0.5309392   -0.2101846    0.8209300
   0.0082485   -0.2711323    0.0637074   -0.4085669   -0.1092758    0.9061633
   0.0076570   -0.2727524    0.0628375   -0.6512408   -0.2713981    0.7086808
   0.0078001   -0.2730239    0.0628589   -0.6523754   -0.3079083    0.6925307
   0.0081476   -0.2730046    0.0631308   -0.5388179   -0.3034320    0.7858781
   0.0086030   -0.2726851    0.0635293   -0.4355685   -0.2508979    0.8644827
   0.0078415   -0.2732964    0.0627867   -0.5394275   -0.3533222    0.7643176
   0.0080932   -0.2739136    0.0625955   -0.4304493   -0.5051922    0.7479934
   0.0084866   -0.2752738    0.0539937    0.7699505   -0.6301070   -0.1007047
   0.0085684   -0.2752378    0.0541816    0.6213230   -0.7672734   -0.1588999
   0.0100618   -0.2742271    0.0538819    0.3891608   -0.8973591   -0.2080879
   0.0114499   -0.2735025    0.0531209    0.2665340   -0.8934944   -0.3614242
   0.0110748   -0.2738619    0.0538176    0.2385795   -0.9264075   -0.2912883
   0.0113552   -0.2729574    0.0517072    0.5426249   -0.7449491   -0.3880838
   0.0106595   -0.2727054    0.0506245    0.4725021   -0.7232807   -0.5035938
   0.0117684   -0.2728887    0.0519731    0.3454906   -0.8346774   -0.4288938
   0.0083912   -0.2754028    0.0542736    0.9804645   -0.1946571   -0.0282472
   0.0083912   -0.2754028    0.0542736    0.9463745   -0.3190956   -0.0505296
   0.0085366   -0.2711061    0.0509751    0.7013094    0.6237435    0.3451220
   0.0085167   -0.2710836    0.0509882    0.9296209    0.3679350    0.0207084
   0.0088932   -0.2711904    0.0507605   -0.3151027    0.6091050    0.7278059
   0.0087906   -0.2712427    0.0508167    0.1971410    0.9133142    0.3563601
   0.0088179   -0.2712447    0.0508006   -0.0055958    0.8914315    0.4531209
   0.0089919   -0.2712773    0.0510987   -0.4695464    0.8247227    0.3152121
   0.0090332   -0.2712798    0.0511747   -0.8985822    0.4360482   -0.0491116
   0.0086839   -0.2709422    0.0514032    0.6712753   -0.2748006   -0.6883852
   0.0092592   -0.2707266    0.0497963    0.5743590    0.2184158   -0.7889273
   0.0094556   -0.2707216    0.0499619    0.5404438    0.1855838   -0.8206578
   0.0096537   -0.2721375    0.0497455    0.2031035    0.0059458   -0.9791392
   0.0100277   -0.2708503    0.0499773   -0.3212629    0.0170258   -0.9468370
   0.0101256   -0.2711104    0.0499236   -0.0547319    0.0890202   -0.9945249
   0.0099100   -0.2705852    0.0499985   -0.3831691   -0.1606009   -0.9096091
   0.0097187   -0.2706905    0.0501189    0.0788098   -0.0998360   -0.9918779
   0.0102676   -0.2720652    0.0498940    0.3118830   -0.0939409   -0.9454650
   0.0103217   -0.2715404    0.0498995    0.2331256    0.0423018   -0.9715261
   0.0101802   -0.2723395    0.0499256    0.3599310   -0.3156105   -0.8779748
   0.0101483   -0.2723996    0.0499401    0.3536012   -0.4501329   -0.8199674
   0.0101789   -0.2727639    0.0502414    0.4815735   -0.6026704   -0.6362981
   0.0105820   -0.2723900    0.0501895    0.4909182   -0.5347022   -0.6878175
   0.0095268   -0.2698123    0.0499848    0.2867378    0.2343138   -0.9289125
   0.0094656   -0.2704118    0.0499781    0.4400292   -0.0062616   -0.8979617
   0.0096204   -0.2700403    0.0499519    0.1602963    0.0879783   -0.9831403
   0.0090205   -0.2710482    0.0513633   -0.8541377    0.1743035   -0.4899664
   0.0088607   -0.2711624    0.0515352   -0.1514896    0.1782343   -0.9722569
   0.0102840   -0.2701356    0.0499611    0.2066679    0.3878847   -0.8982393
   0.0099804   -0.2702126    0.0498954   -0.1374101    0.0664039   -0.9882859
   0.0097543   -0.2703098    0.0499569   -0.1502236   -0.1353944   -0.9793371
   0.0103795   -0.2703953    0.0499033    0.2204214    0.1462949   -0.9643714
   0.0104230   -0.2703874    0.0499222    0.3505617    0.2144492   -0.9116568
   0.0105314   -0.2706697    0.0499378    0.3117045   -0.0203563   -0.9499610
   0.0108865   -0.2709266    0.0501150    0.3821392    0.0750486   -0.9210523
   0.0103201   -0.2710494    0.0499352    0.1857895   -0.0416774   -0.9817053
   0.0114440   -0.2708292    0.0503584    0.4252136    0.2848320   -0.8591066
   0.0118095   -0.2707890    0.0505900    0.4708332    0.5405272   -0.6972421
   0.0122931   -0.2710133    0.0507936    0.5194272    0.3523821   -0.7784743
   0.0125527   -0.2712729    0.0508893    0.5330116    0.0523432   -0.8444873
   0.0129947   -0.2712320    0.0511829    0.5329661    0.2879279   -0.7956410
   0.0134638   -0.2711028    0.0516100    0.4708345    0.6048116   -0.6422755
   0.0137368   -0.2709504    0.0519638    0.3222234    0.7695583   -0.5513185
   0.0145650   -0.2708637    0.0524905    0.2045120    0.8704229   -0.4478156
   0.0125803   -0.2686839    0.0550528    0.2756170    0.6109942   -0.7421060
   0.0126646   -0.2684262    0.0552834    0.3889167    0.5851608   -0.7115692
   0.0130059   -0.2684203    0.0555868    0.6026864    0.6472049   -0.4667921
   0.0142013   -0.2692810    0.0558312    0.4876873    0.8267624   -0.2804015
   0.0142268   -0.2694748    0.0552999    0.4603970    0.8140509   -0.3540563
   0.0140047   -0.2698527    0.0543979    0.3080800    0.8118072   -0.4960401
   0.0132415   -0.2683397    0.0564599    0.7222159    0.6511718   -0.2331939
   0.0145970   -0.2703904    0.0538254    0.2639630    0.8712902   -0.4137353
   0.0149859   -0.2706861    0.0532619    0.3219732    0.9022262   -0.2869166
   0.0148773   -0.2708090    0.0528141    0.3171907    0.8753518   -0.3648963
   0.0083912   -0.2754028    0.0542736    0.8654243   -0.4897334   -0.1058394
   0.0114130   -0.2745239    0.0555832   -0.0111798   -0.9079557   -0.4189169
   0.0103418   -0.2743492    0.0548769    0.3371293   -0.8900054   -0.3069760
   0.0117780   -0.2741348    0.0548948    0.0338919   -0.9001938   -0.4341688
   0.0117144   -0.2743170    0.0551859   -0.0365384   -0.8740264   -0.4845025
   0.0089115   -0.2741758    0.0627438   -0.3140365   -0.6788085    0.6637771
   0.0093216   -0.2736500    0.0634032   -0.2538685   -0.5850579    0.7702324
   0.0098480   -0.2742864    0.0630500   -0.2481872   -0.6690933    0.7005121
   0.0089355   -0.2737099    0.0632171   -0.3306683   -0.5970273    0.7309014
   0.0107269   -0.2748077    0.0627015   -0.2722098   -0.8344882    0.4790943
   0.0107419   -0.2745996    0.0630073   -0.1979982   -0.7477889    0.6337259
   0.0122170   -0.2750920    0.0565804   -0.1837929   -0.8898317   -0.4176358
   0.0123454   -0.2755658    0.0575449   -0.3853759   -0.8656382   -0.3196183
   0.0124340   -0.2753238    0.0569393   -0.2761406   -0.8534161   -0.4420716
   0.0116807   -0.2753234    0.0624067   -0.3130501   -0.8643192    0.3936393
   0.0123249   -0.2757069    0.0620023   -0.2592166   -0.9307730    0.2578145
   0.0122749   -0.2757505    0.0615259   -0.2499853   -0.9612843    0.1159307
   0.0114281   -0.2751357    0.0625676   -0.3194801   -0.8243288    0.4673483
   0.0110642   -0.2749743    0.0626073   -0.2679422   -0.8272237    0.4938704
   0.0130551   -0.2762996    0.0585173   -0.4961436   -0.8583745   -0.1305174
   0.0131801   -0.2763933    0.0589399   -0.4570012   -0.8881073    0.0491453
   0.0130482   -0.2761863    0.0600372   -0.1433188   -0.9832096    0.1129543
   0.0134943   -0.2762863    0.0597690   -0.0401397   -0.9545012    0.2954931
   0.0127776   -0.2760793    0.0602030   -0.3368827   -0.9364368    0.0979603
   0.0126177   -0.2760178    0.0599572   -0.4380267   -0.8955632    0.0780969
   0.0133954   -0.2764285    0.0593143   -0.1667020   -0.9273949    0.3348868
   0.0124401   -0.2758650    0.0609184   -0.3266795   -0.9416651    0.0809160
   0.0127165   -0.2759897    0.0607478   -0.2912297   -0.9446732    0.1509235
   0.0053755   -0.2648453    0.0623163   -0.1992375   -0.0447951    0.9789269
   0.0066601   -0.2654892    0.0625241   -0.1956398   -0.0226616    0.9804140
   0.0067440   -0.2661072    0.0625862   -0.2680276    0.0425420    0.9624715
   0.0052699   -0.2685405    0.0610384   -0.5994745   -0.5581881    0.5736344
   0.0053125   -0.2685421    0.0610859   -0.6899394   -0.5196929    0.5038878
   0.0054091   -0.2687966    0.0610111   -0.7376329   -0.3208594    0.5940934
   0.0054524   -0.2678012    0.0620618   -0.4034304   -0.1110374    0.9082481
   0.0056332   -0.2681612    0.0620728   -0.4712816   -0.2352046    0.8500426
   0.0059108   -0.2681417    0.0622720   -0.5230171   -0.2248046    0.8221411
   0.0063448   -0.2686600    0.0623803   -0.5113654   -0.1815824    0.8399603
   0.0066065   -0.2677119    0.0625884   -0.3398641    0.0269667    0.9400879
   0.0054592   -0.2679007    0.0620506   -0.5220982   -0.2897935    0.8021429
   0.0055412   -0.2685958    0.0614507   -0.6989198   -0.6089703    0.3750551
   0.0055208   -0.2681720    0.0619953   -0.5961901   -0.4321856    0.6765893
   0.0057021   -0.2685307    0.0618637   -0.6569909   -0.6026868    0.4529145
   0.0057184   -0.2684189    0.0619971   -0.6144788   -0.4710520    0.6328711
   0.0052705   -0.2625975    0.0618687   -0.1886652    0.5019843    0.8440481
   0.0066996   -0.2626572    0.0621994   -0.1096672    0.2542591    0.9608982
   0.0062711   -0.2646544    0.0624486   -0.1331780    0.0955363    0.9864768
   0.0069552   -0.2641764    0.0624446   -0.1202046    0.1516041    0.9811050
   0.0057145   -0.2648222    0.0623995   -0.1737368    0.0032297    0.9847868
   0.0128712   -0.2681867    0.0556820    0.6570480    0.5632105   -0.5010807
   0.0127181   -0.2675300    0.0563210    0.8674940    0.4380366   -0.2357502
   0.0132116   -0.2682252    0.0569880    0.7985127    0.5893949   -0.1224387
   0.0134217   -0.2684587    0.0568484    0.6464777    0.7500798   -0.1394517
   0.0123253   -0.2656060    0.0566872    0.8308263    0.1366466   -0.5394955
   0.0125229   -0.2667873    0.0566848    0.9620726    0.1903878   -0.1953686
   0.0129052   -0.2677783    0.0571990    0.8921718    0.4112261   -0.1868759
   0.0125311   -0.2659767    0.0570432    0.9595792    0.0855744   -0.2681133
   0.0126806   -0.2666798    0.0574083    0.9360394    0.1031223   -0.3364462
   0.0124746   -0.2650921    0.0571389    0.8529809    0.1821108   -0.4891413
   0.0125112   -0.2653771    0.0570974    0.9352922    0.1014186   -0.3390321
   0.0116526   -0.2629175    0.0572717    0.4454536    0.4449620   -0.7769040
   0.0121742   -0.2634111    0.0573903    0.6099112    0.3628335   -0.7045283
   0.0125793   -0.2639943    0.0576582    0.8917016    0.1498169   -0.4271102
   0.0123920   -0.2642244    0.0572490    0.8289021    0.1526056   -0.5381755
   0.0125137   -0.2634213    0.0577374    0.7949890    0.2367260   -0.5585278
   0.0109884   -0.2600743    0.0593701    0.3454685    0.8042159   -0.4836199
   0.0106104   -0.2599448    0.0593538    0.1938049    0.8158538   -0.5448140
   0.0093408   -0.2598626    0.0593440   -0.0356835    0.9198030   -0.3907547
   0.0092486   -0.2596824    0.0599135   -0.0628992    0.9605510   -0.2708976
   0.0099768   -0.2598580    0.0593927    0.0585998    0.9042620   -0.4229378
   0.0106760   -0.2598451    0.0595691    0.1455848    0.9269599   -0.3457607
   0.0114463   -0.2624388    0.0574860    0.4881816    0.5012970   -0.7144089
   0.0119222   -0.2619065    0.0581909    0.6201500    0.5024993   -0.6024188
   0.0118794   -0.2621588    0.0579829    0.5269696    0.4744950   -0.7050939
   0.0117676   -0.2614244    0.0584462    0.5415529    0.5544112   -0.6319404
   0.0113961   -0.2603077    0.0593478    0.5274340    0.7024332   -0.4779131
   0.0122100   -0.2611915    0.0590785    0.6285462    0.5826827   -0.5151802
   0.0118027   -0.2616684    0.0582888    0.6278160    0.5295324   -0.5704758
   0.0114704   -0.2602063    0.0595812    0.4845613    0.7760093   -0.4037449
   0.0073530   -0.2602903    0.0609795   -0.2571537    0.8227523    0.5069029
   0.0068041   -0.2607349    0.0612693   -0.3165095    0.6872702    0.6538207
   0.0076945   -0.2602678    0.0610674   -0.2160891    0.8274500    0.5182972
   0.0081952   -0.2601096    0.0610022   -0.1661409    0.8676167    0.4686561
   0.0061151   -0.2611810    0.0612937   -0.4520997    0.6104618    0.6503401
   0.0064707   -0.2611153    0.0614376   -0.3415382    0.6005275    0.7229927
   0.0083645   -0.2598313    0.0604202   -0.2588730    0.9456485    0.1968086
   0.0083937   -0.2600053    0.0608935   -0.2111586    0.8605654    0.4635075
   0.0059060   -0.2620616    0.0618255   -0.3499431    0.4709495    0.8097817
   0.0083814   -0.2597918    0.0599105   -0.2658647    0.9612987   -0.0722545
   0.0086072   -0.2597679    0.0597801   -0.1121353    0.9489849   -0.2947090
   0.0060421   -0.2686804    0.0621567   -0.6579171   -0.4069207    0.6336881
   0.0073091   -0.2688397    0.0629119   -0.4119502    0.0801393    0.9076754
   0.0080011   -0.2697145    0.0633846   -0.3773183    0.2227377    0.8988987
   0.0056745   -0.2688305    0.0613562   -0.7908578   -0.4329019    0.4325967
   0.0057689   -0.2686502    0.0618162   -0.7393851   -0.5111933    0.4381678
   0.0082615   -0.2700166    0.0635990   -0.3268654    0.2668668    0.9066097
   0.0083532   -0.2703336    0.0637027   -0.2992888    0.2107257    0.9306025
   0.0088623   -0.2698600    0.0637215   -0.1441834    0.1646155    0.9757627
   0.0088460   -0.2711610    0.0638582   -0.1276880   -0.0030343    0.9918097
   0.0089715   -0.2706022    0.0638245    0.0382532    0.0907358    0.9951400
   0.0087314   -0.2720919    0.0637384   -0.3158669   -0.1681111    0.9337916
   0.0079194   -0.2732894    0.0628406   -0.5757987   -0.3695096    0.7293274
   0.0088239   -0.2732115    0.0634639   -0.4255980   -0.3481069    0.8352772
   0.0089794   -0.2726736    0.0636728   -0.2672226   -0.2494416    0.9307905
   0.0089124   -0.2723433    0.0637354   -0.2612919   -0.1828361    0.9477856
   0.0083127   -0.2735276    0.0629972   -0.4361791   -0.4954889    0.7511581
   0.0104672   -0.2742239    0.0546503    0.2504703   -0.9224766   -0.2937713
   0.0108826   -0.2740718    0.0544178    0.2053283   -0.9436851   -0.2594198
   0.0125054   -0.2732612    0.0530231    0.1563787   -0.8455089   -0.5105492
   0.0124558   -0.2734246    0.0533578    0.0537528   -0.9060950   -0.4196456
   0.0112446   -0.2727794    0.0512820    0.5992474   -0.6956720   -0.3961603
   0.0115354   -0.2728011    0.0516129    0.9678179   -0.2188911   -0.1241577
   0.0115354   -0.2728011    0.0516129    0.9006108   -0.3780879   -0.2143591
   0.0113065   -0.2727259    0.0512497    0.4628984   -0.7299797   -0.5028467
   0.0108638   -0.2722401    0.0502807    0.5003069   -0.5190372   -0.6930320
   0.0112918   -0.2721937    0.0505542    0.4654217   -0.5799120   -0.6686440
   0.0119410   -0.2727618    0.0518810    0.5323205   -0.7326235   -0.4241434
   0.0088213   -0.2713878    0.0512534    0.2764455    0.9257433    0.2580258
   0.0086189   -0.2712026    0.0514227    0.5774151    0.3836147   -0.7207160
   0.0088188   -0.2714021    0.0512915    0.1343998    0.9906053    0.0252540
   0.0089797   -0.2713184    0.0512031   -0.4175638    0.8922977    0.1715962
   0.0088449   -0.2713937    0.0512927   -0.4553376    0.6874249   -0.5657868
   0.0101041   -0.2704789    0.0498846   -0.1387103   -0.0374029   -0.9896264
   0.0102528   -0.2707529    0.0499139   -0.0201320   -0.0593135   -0.9980364
   0.0095128   -0.2704028    0.0499936    0.1461356   -0.2161694   -0.9653575
   0.0108983   -0.2718580    0.0501187    0.4218705   -0.2898159   -0.8590879
   0.0107023   -0.2715738    0.0500093    0.3074094   -0.0219918   -0.9513232
   0.0113554   -0.2714314    0.0502169    0.3810941   -0.0296857   -0.9240596
   0.0110278   -0.2715024    0.0501115    0.3276293   -0.0696844   -0.9422331
   0.0114406   -0.2714179    0.0502585    0.3700189    0.0251222   -0.9286845
   0.0115628   -0.2710946    0.0503393    0.3870908    0.2137333   -0.8969274
   0.0118969   -0.2710480    0.0505203    0.4902672    0.2318420   -0.8401710
   0.0121327   -0.2713208    0.0506299    0.5386282   -0.0312898   -0.8419624
   0.0122807   -0.2714752    0.0507682    0.5087428   -0.1436492   -0.8488496
   0.0127185   -0.2714779    0.0510144    0.4956425   -0.0584196   -0.8665597
   0.0131648   -0.2715049    0.0512538    0.4775801    0.0950998   -0.8734262
   0.0135347   -0.2711866    0.0515628    0.4689259    0.4890541   -0.7354826
   0.0139277   -0.2711608    0.0518539    0.3390667    0.6171552   -0.7100375
   0.0143195   -0.2710487    0.0521184    0.2323868    0.7651605   -0.6004380
   0.0143833   -0.2710896    0.0520782    0.2655431    0.6965807   -0.6665300
   0.0148143   -0.2710363    0.0523323    0.3647491    0.7290991   -0.5791136
   0.0145100   -0.2695000    0.0556351    0.7789698    0.5785736   -0.2417822
   0.0146020   -0.2693216    0.0560966    0.3293917    0.8785830   -0.3458223
   0.0138481   -0.2686744    0.0570862    0.4590005    0.8585924   -0.2283367
   0.0143257   -0.2695557    0.0552364    0.5531290    0.7549453   -0.3522867
   0.0149704   -0.2705636    0.0537823    0.4552456    0.8431018   -0.2862355
   0.0144803   -0.2699173    0.0546177    0.4640643    0.8129790   -0.3517236
   0.0153739   -0.2709827    0.0530138    0.5851845    0.7646635   -0.2699052
   0.0152580   -0.2710374    0.0527447    0.4723635    0.7560734   -0.4530184
   0.0129650   -0.2746432    0.0555135   -0.1603606   -0.8579616   -0.4880434
   0.0126060   -0.2737332    0.0539359   -0.0754268   -0.8883939   -0.4528433
