NORM_ASCII
1111 2218
   0.0099427   -0.4126547    0.1159538   -0.3792303   -0.5968432    0.7070803
   0.0093896   -0.4121761    0.1154526   -0.9270230   -0.3508837    0.1323217
   0.0094734   -0.4117142    0.1161148   -0.7430812   -0.2903280    0.6029428
   0.0093583   -0.4117690    0.1158754   -0.9102463   -0.2661218    0.3172237
   0.0096157   -0.4127382    0.1151763   -0.8690005   -0.4867823    0.0887759
   0.0100548   -0.4128712    0.1157991   -0.1830418   -0.7722895    0.6083293
   0.0101654   -0.4129993    0.1156217   -0.0831109   -0.8734505    0.4797675
   0.0097273   -0.4129338    0.1150164   -0.7319281   -0.6800622    0.0423863
   0.0100937   -0.4131142    0.1153150   -0.2192952   -0.9370070    0.2718962
   0.0100215   -0.4131636    0.1149910   -0.4115425   -0.9050163    0.1076024
   0.0102754   -0.4130889    0.1154345    0.0365430   -0.9271411    0.3729263
   0.0098304   -0.4124015    0.1160989   -0.5048254   -0.5146336    0.6930394
   0.0100886   -0.4125964    0.1160402   -0.2359994   -0.6143892    0.7528813
   0.0101237   -0.4125850    0.1160620   -0.1452115   -0.6621908    0.7351305
   0.0102355   -0.4127939    0.1159055   -0.0309408   -0.6811094    0.7315276
   0.0094628   -0.4124200    0.1149029   -0.9208475   -0.3893765    0.0206362
   0.0092924   -0.4118926    0.1153151   -0.9737887   -0.2259185    0.0263881
   0.0092177   -0.4114011    0.1155639   -0.9868291   -0.1253911    0.1022028
   0.0098979   -0.4120227    0.1163379   -0.4648610   -0.3631793    0.8074683
   0.0097822   -0.4115578    0.1164287   -0.5248553   -0.2168088    0.8231165
   0.0095496   -0.4112310    0.1163072   -0.7170091   -0.0274431    0.6965234
   0.0092795   -0.4113254    0.1159006   -0.9216923   -0.0505910    0.3846087
   0.0097102   -0.4128951    0.1147094   -0.8051947   -0.5923030   -0.0289608
   0.0103459   -0.4129201    0.1157275    0.2012026   -0.7773782    0.5959871
   0.0104561   -0.4130058    0.1155390    0.3019923   -0.8165545    0.4919750
   0.0099476   -0.4131264    0.1146451   -0.5093882   -0.8560724   -0.0875426
   0.0103847   -0.4131418    0.1152377    0.1514334   -0.9543795    0.2573475
   0.0102037   -0.4131807    0.1151215   -0.0231456   -0.9880536    0.1523628
   0.0101308   -0.4132011    0.1147901   -0.1502379   -0.9885691   -0.0126380
   0.0105657   -0.4130587    0.1153420    0.3978543   -0.8396782    0.3696653
   0.0100118   -0.4123742    0.1162182   -0.2709484   -0.5609834    0.7822305
   0.0104581   -0.4125961    0.1160105    0.2418151   -0.6808549    0.6913480
   0.0103042   -0.4124923    0.1161641    0.0376211   -0.6719064    0.7396800
   0.0093553   -0.4121224    0.1142717   -0.9653133   -0.2582827   -0.0382128
   0.0095129   -0.4125728    0.1142061   -0.9039016   -0.4206180   -0.0777325
   0.0095777   -0.4127052    0.1142840   -0.7996848   -0.5992978   -0.0366913
   0.0092466   -0.4114850    0.1151822   -0.9977094   -0.0328403   -0.0591386
   0.0092290   -0.4109531    0.1156100   -0.9875623    0.1077836    0.1144698
   0.0101922   -0.4122872    0.1163217   -0.0865084   -0.4851891    0.8701194
   0.0100785   -0.4119589    0.1164478   -0.1925970   -0.2959034    0.9356001
   0.0099027   -0.4111694    0.1165622   -0.4002861   -0.0920893    0.9117514
   0.0093454   -0.4108735    0.1159571   -0.8729673    0.1254330    0.4713753
   0.0098545   -0.4107374    0.1165318   -0.6311887    0.0122349    0.7755328
   0.0097801   -0.4129448    0.1144837   -0.6586816   -0.7399869   -0.1362272
   0.0106609   -0.4126225    0.1158720    0.4691841   -0.6287394    0.6201234
   0.0108147   -0.4126606    0.1157024    0.5478227   -0.6541578    0.5215054
   0.0100566   -0.4131370    0.1144371   -0.3580715   -0.9123637   -0.1984372
   0.0102392   -0.4131944    0.1145783   -0.0662268   -0.9900382   -0.1242516
   0.0104938   -0.4131582    0.1150315    0.2345001   -0.9638666    0.1263755
   0.0106745   -0.4130731    0.1151357    0.4767483   -0.8587071    0.1879710
   0.0104215   -0.4131960    0.1147044    0.1762788   -0.9842188   -0.0154623
   0.0110331   -0.4127202    0.1152968    0.7040614   -0.6566460    0.2703954
   0.0104837   -0.4123361    0.1162501    0.3227404   -0.5180648    0.7921159
   0.0094871   -0.4122801    0.1135447   -0.8875448   -0.3956301   -0.2360952
   0.0092968   -0.4117759    0.1138600   -0.9883775   -0.1214622   -0.0914155
   0.0096883   -0.4128334    0.1141069   -0.7092409   -0.6958636   -0.1129210
   0.0095704   -0.4126226    0.1139729   -0.8257406   -0.5314466   -0.1889893
   0.0098725   -0.4129832    0.1142713   -0.5573932   -0.8184862   -0.1392594
   0.0092599   -0.4107543    0.1152968   -0.9923106    0.1096055    0.0575012
   0.0092982   -0.4111208    0.1148423   -0.9992296   -0.0166658   -0.0355304
   0.0094044   -0.4104507    0.1158865   -0.9410983    0.2371693    0.2410078
   0.0103686   -0.4120738    0.1163978    0.2044011   -0.3646639    0.9084274
   0.0103382   -0.4111387    0.1166668   -0.0233211   -0.1250478    0.9918766
   0.0104637   -0.4115993    0.1165558    0.2099710   -0.2693577    0.9398716
   0.0102002   -0.4102601    0.1166823   -0.1855674    0.0063199    0.9826112
   0.0095177   -0.4103946    0.1161293   -0.8422272    0.1425144    0.5199452
   0.0099914   -0.4102790    0.1166142   -0.4829046    0.0326165    0.8750653
   0.0096612   -0.4103502    0.1163168   -0.8099365    0.1104052    0.5760326
   0.0098115   -0.4103098    0.1164929   -0.7216922    0.0682782    0.6888385
   0.0108350   -0.4121185    0.1161539    0.5815088   -0.4262185    0.6929540
   0.0110605   -0.4120312    0.1160026    0.7020777   -0.4112708    0.5813289
   0.0111028   -0.4124840    0.1155724    0.7199065   -0.5300040    0.4481411
   0.0101651   -0.4131109    0.1142199   -0.1859327   -0.9400055   -0.2860398
   0.0103475   -0.4131608    0.1143591    0.0917460   -0.9573161   -0.2740959
   0.0105294   -0.4131469    0.1144814    0.2557042   -0.9562205   -0.1423294
   0.0106022   -0.4131400    0.1148163    0.4427342   -0.8958381    0.0382161
   0.0110046   -0.4128299    0.1149049    0.6718634   -0.7382485    0.0599050
   0.0107102   -0.4130813    0.1145910    0.5158906   -0.8537192   -0.0708547
   0.0113075   -0.4122805    0.1153784    0.8464184   -0.4529402    0.2800376
   0.0113184   -0.4123725    0.1151230    0.9130492   -0.3959883    0.0976447
   0.0112482   -0.4125546    0.1148332    0.8084162   -0.5886076   -0.0020688
   0.0110148   -0.4113630    0.1163779    0.4841455   -0.2908899    0.8252189
   0.0096605   -0.4126671    0.1137609   -0.7293836   -0.6161174   -0.2973195
   0.0095932   -0.4123220    0.1133432   -0.7317700   -0.5029547   -0.4599448
   0.0097205   -0.4126006    0.1134999   -0.6841910   -0.6108269   -0.3984636
   0.0094023   -0.4118787    0.1133866   -0.9371401   -0.2330099   -0.2597592
   0.0095305   -0.4120617    0.1132351   -0.8109900   -0.3652797   -0.4570186
   0.0093273   -0.4114281    0.1134467   -0.9832709   -0.0828150   -0.1622344
   0.0097978   -0.4128863    0.1139102   -0.5801294   -0.7796922   -0.2356479
   0.0099814   -0.4130015    0.1140658   -0.3585374   -0.9114077   -0.2019576
   0.0093002   -0.4101970    0.1150592   -0.9817945    0.0264398    0.1880972
   0.0094440   -0.4096717    0.1154419   -0.9442347    0.0984854    0.3141998
   0.0095491   -0.4099943    0.1159540   -0.9092389    0.2217426    0.3522992
   0.0092482   -0.4107729    0.1144355   -0.9957668   -0.0814363    0.0426226
   0.0107880   -0.4107217    0.1166333    0.3153259   -0.1258102    0.9406069
   0.0106195   -0.4102517    0.1166862    0.2497313    0.0021808    0.9683127
   0.0101503   -0.4098285    0.1166555   -0.2783580    0.1207992    0.9528506
   0.0106690   -0.4100316    0.1166661    0.1021766    0.0638881    0.9927126
   0.0097899   -0.4098881    0.1164135   -0.7906664    0.1370860    0.5967026
   0.0099554   -0.4098534    0.1165618   -0.6081428    0.1591528    0.7777099
   0.0097051   -0.4099249    0.1162573   -0.8674652    0.1521489    0.4736611
   0.0113014   -0.4110768    0.1162196    0.7100499   -0.2724900    0.6492907
   0.0112793   -0.4121316    0.1156079    0.8225526   -0.3657314    0.4354857
   0.0115080   -0.4108227    0.1160138    0.8641427   -0.1854570    0.4678280
   0.0114620   -0.4113058    0.1158155    0.8637914   -0.2705795    0.4250308
   0.0102725   -0.4130310    0.1139892   -0.0308674   -0.9511125   -0.3072982
   0.0103169   -0.4130375    0.1140210    0.2138865   -0.9284377   -0.3037368
   0.0106369   -0.4130536    0.1142469    0.3713296   -0.8811721   -0.2926605
   0.0106673   -0.4127324    0.1136176    0.4216187   -0.7990402   -0.4286869
   0.0109271   -0.4128980    0.1145968    0.7181115   -0.6921834   -0.0720966
   0.0109240   -0.4128252    0.1141035    0.6196672   -0.7412111   -0.2581059
   0.0114809   -0.4118377    0.1153885    0.9228056   -0.3035061    0.2373056
   0.0113532   -0.4123190    0.1145623    0.9350099   -0.3544063    0.0123599
   0.0117132   -0.4109685    0.1153348    0.9565316   -0.2171339    0.1946797
   0.0115972   -0.4115684    0.1148316    0.9522619   -0.2957655    0.0756307
   0.0112819   -0.4124222    0.1142520    0.8593012   -0.5025858   -0.0949151
   0.0112088   -0.4124389    0.1139197    0.7646360   -0.5961452   -0.2448320
   0.0110386   -0.4107192    0.1165205    0.5288924   -0.0983059    0.8429762
   0.0099061   -0.4128719    0.1136960   -0.4288217   -0.8005894   -0.4185313
   0.0097918   -0.4127070    0.1135756   -0.5368783   -0.7115963   -0.4532025
   0.0098277   -0.4125093    0.1132663   -0.4379621   -0.6762653   -0.5923296
   0.0097536   -0.4123571    0.1131767   -0.5929083   -0.5140590   -0.6198412
   0.0094319   -0.4115180    0.1130322   -0.8857976   -0.1924786   -0.4222732
   0.0096376   -0.4119570    0.1129978   -0.6429196   -0.4336557   -0.6313455
   0.0091929   -0.4104521    0.1139058   -0.9943875   -0.1014447   -0.0300399
   0.0091560   -0.4096609    0.1135248   -0.9897778   -0.0380091   -0.1374600
   0.0094887   -0.4106772    0.1128636   -0.9312943   -0.0310902   -0.3629386
   0.0093143   -0.4093385    0.1129834   -0.9055455   -0.0794889   -0.4167360
   0.0100898   -0.4129832    0.1138508   -0.1670535   -0.9418436   -0.2915884
   0.0093387   -0.4092866    0.1152023   -0.9228228    0.0572366    0.3809488
   0.0091213   -0.4095005    0.1142501   -0.9916170   -0.0625158    0.1130818
   0.0097722   -0.4094991    0.1161981   -0.9057882    0.1916536    0.3779109
   0.0091578   -0.4100264    0.1138520   -0.9927242   -0.0867201   -0.0835366
   0.0113325   -0.4103161    0.1163385    0.6449913   -0.0428156    0.7629896
   0.0109586   -0.4099745    0.1165672    0.4041749   -0.0087398    0.9146400
   0.0103732   -0.4096784    0.1166594   -0.0881195    0.1366667    0.9866900
   0.0099542   -0.4094401    0.1164453   -0.6345823    0.2191958    0.7411198
   0.0101317   -0.4089963    0.1164531   -0.5321943    0.2391994    0.8121286
   0.0108056   -0.4093900    0.1166021    0.2294202   -0.0000495    0.9733275
   0.0105427   -0.4088696    0.1165772   -0.1746382    0.1426390    0.9742462
   0.0104043   -0.4093955    0.1166113   -0.0156616    0.1275781    0.9917049
   0.0098020   -0.4094810    0.1162738   -0.8226248    0.2248145    0.5222517
   0.0113971   -0.4107796    0.1162128    0.7519424   -0.1440063    0.6433077
   0.0115558   -0.4099242    0.1161106    0.8455822   -0.0431136    0.5321014
   0.0116321   -0.4104138    0.1158678    0.9219610   -0.1169473    0.3692036
   0.0103799   -0.4129416    0.1137556    0.2110844   -0.8993519   -0.3828962
   0.0104854   -0.4127250    0.1134897    0.3343796   -0.7266136   -0.6001857
   0.0109532   -0.4124000    0.1134475    0.6397394   -0.5874237   -0.4956479
   0.0110292   -0.4125855    0.1138316    0.6213279   -0.6713943   -0.4039571
   0.0114405   -0.4120821    0.1142783    0.9323651   -0.3603772   -0.0286977
   0.0115617   -0.4117086    0.1139842    0.9547740   -0.2823684   -0.0931381
   0.0116120   -0.4115786    0.1145586    0.9544696   -0.2969289    0.0286525
   0.0117705   -0.4109674    0.1148024    0.9724631   -0.2194728    0.0784045
   0.0117962   -0.4101861    0.1154850    0.9667251   -0.0966883    0.2368414
   0.0113859   -0.4121518    0.1139715    0.8726493   -0.4308498   -0.2298948
   0.0100131   -0.4127400    0.1134518   -0.2742899   -0.7563962   -0.5938264
   0.0101977   -0.4129013    0.1136189   -0.0098537   -0.8304250   -0.5570432
   0.0100172   -0.4127313    0.1134410   -0.0956735   -0.7369349   -0.6691589
   0.0098901   -0.4123696    0.1131055   -0.3381454   -0.6182483   -0.7095257
   0.0095452   -0.4111438    0.1127322   -0.8287888   -0.1067790   -0.5492790
   0.0097776   -0.4116002    0.1126246   -0.6515171   -0.3687829   -0.6629666
   0.0100347   -0.4120134    0.1127236   -0.3794009   -0.5768016   -0.7234327
   0.0091344   -0.4096052    0.1137763   -0.9785843   -0.0956470   -0.1822757
   0.0091317   -0.4095731    0.1137727   -0.9881649   -0.0695680   -0.1367132
   0.0095853   -0.4107207    0.1126556   -0.8239325   -0.0446324   -0.5649275
   0.0100384   -0.4091042    0.1119984   -0.7313986   -0.0438131   -0.6805413
   0.0094273   -0.4089645    0.1126834   -0.7310003   -0.1658618   -0.6619127
   0.0092484   -0.4077204    0.1125380   -0.8914117   -0.1762690   -0.4175099
   0.0099637   -0.4090318    0.1163103   -0.7986819    0.2738557    0.5358266
   0.0091924   -0.4089395    0.1148012   -0.9669282   -0.0296911    0.2533147
   0.0093184   -0.4088666    0.1151209   -0.8837905    0.0783537    0.4612754
   0.0099928   -0.4086300    0.1161387   -0.8127688    0.2239431    0.5378255
   0.0090861   -0.4089009    0.1141462   -0.9944753   -0.0652005    0.0822663
   0.0112876   -0.4094325    0.1163746    0.6109136    0.0008522    0.7916968
   0.0103288   -0.4089728    0.1165427   -0.2728488    0.2094526    0.9389798
   0.0101487   -0.4081785    0.1161858   -0.5979632    0.2724455    0.7537993
   0.0110750   -0.4089629    0.1165304    0.4445625    0.0039771    0.8957390
   0.0107813   -0.4089494    0.1166167    0.0524999    0.0626563    0.9966534
   0.0107359   -0.4081070    0.1164635   -0.2178494    0.2459385    0.9444871
   0.0116374   -0.4092066    0.1159897    0.8140410    0.0114351    0.5806948
   0.0117463   -0.4092153    0.1157818    0.9421422    0.0013309    0.3352108
   0.0104067   -0.4123662    0.1130606    0.1718728   -0.7226542   -0.6695003
   0.0107266   -0.4119807    0.1128097    0.3571236   -0.6381269   -0.6820973
   0.0108752   -0.4120740    0.1130267    0.5297058   -0.6171843   -0.5818035
   0.0114615   -0.4117837    0.1136471    0.8661602   -0.3862373   -0.3171548
   0.0111945   -0.4118856    0.1132020    0.7701874   -0.4704772   -0.4306536
   0.0111578   -0.4115414    0.1128053    0.6973892   -0.4799283   -0.5322754
   0.0117325   -0.4111625    0.1144534    0.9679155   -0.2512572   -0.0030692
   0.0117180   -0.4105299    0.1133443    0.9365146   -0.2170352   -0.2753837
   0.0118039   -0.4108405    0.1142229    0.9779552   -0.1957183   -0.0727869
   0.0117965   -0.4104617    0.1136511    0.9828793   -0.1174969   -0.1419253
   0.0118403   -0.4106923    0.1145885    0.9901791   -0.1382020    0.0211083
   0.0118893   -0.4096916    0.1151417    0.9916784   -0.0438607    0.1210377
   0.0101778   -0.4123806    0.1130297   -0.0809034   -0.7091301   -0.7004207
   0.0098103   -0.4112013    0.1124475   -0.6797558   -0.1915669   -0.7079789
   0.0100378   -0.4120029    0.1127148   -0.3251097   -0.5499002   -0.7693591
   0.0099010   -0.4116216    0.1125253   -0.5161582   -0.3988013   -0.7579830
   0.0100434   -0.4120136    0.1127210   -0.1734506   -0.6186624   -0.7662713
   0.0090529   -0.4087258    0.1137942   -0.9967589   -0.0768818    0.0236828
   0.0089932   -0.4079022    0.1135624   -0.9990711   -0.0405241    0.0146523
   0.0089647   -0.4071374    0.1130546   -0.9884660   -0.0949100   -0.1180131
   0.0098667   -0.4107953    0.1122972   -0.7017913   -0.1464493   -0.6971668
   0.0100939   -0.4099859    0.1119692   -0.6622541   -0.0740563   -0.7456106
   0.0103309   -0.4095920    0.1117499   -0.5459439   -0.0848434   -0.8335148
   0.0104465   -0.4087415    0.1116200   -0.5819641    0.0236458   -0.8128707
   0.0102315   -0.4078263    0.1118161   -0.4689119   -0.0221484   -0.8829672
   0.0099419   -0.4086439    0.1121037   -0.6705285   -0.0570024   -0.7396907
   0.0099711   -0.4082243    0.1120197   -0.5843158   -0.1383744   -0.7996421
   0.0093683   -0.4073103    0.1122342   -0.7029201   -0.2061069   -0.6807520
   0.0097816   -0.4077787    0.1120645   -0.5476283   -0.1797442   -0.8171874
   0.0091053   -0.4072347    0.1126040   -0.8956017   -0.1775271   -0.4078992
   0.0090630   -0.4077300    0.1143339   -0.9814460    0.0070795    0.1916082
   0.0090449   -0.4081923    0.1142282   -0.9922976   -0.0387546    0.1176586
   0.0097497   -0.4083232    0.1155654   -0.7969242    0.1668418    0.5805822
   0.0093630   -0.4067236    0.1148995   -0.7883333    0.1010396    0.6068951
   0.0091108   -0.4068249    0.1144603   -0.9386429    0.0524223    0.3408833
   0.0100099   -0.4082256    0.1159900   -0.8045903    0.2283065    0.5481885
   0.0115243   -0.4089226    0.1161277    0.7077938    0.0340844    0.7055963
   0.0103447   -0.4077435    0.1161604   -0.5183565    0.3080921    0.7977380
   0.0101707   -0.4077745    0.1160280   -0.7268028    0.2940492    0.6207195
   0.0110021   -0.4085216    0.1165453    0.1858783    0.1305055    0.9738673
   0.0110229   -0.4085233    0.1165386    0.5170551    0.1001716    0.8500704
   0.0109881   -0.4081039    0.1164529    0.2156347    0.2621111    0.9406378
   0.0105376   -0.4077172    0.1162576   -0.3823423    0.3632174    0.8496396
   0.0107485   -0.4076997    0.1163227   -0.1406744    0.4161456    0.8983505
   0.0115577   -0.4086162    0.1160745    0.8018074    0.0593814    0.5946249
   0.0117836   -0.4078680    0.1154745    0.9659320    0.1360496    0.2201499
   0.0119094   -0.4092832    0.1150073    0.9966184   -0.0047292    0.0820325
   0.0118939   -0.4088001    0.1152102    0.9956204    0.0511968    0.0782232
   0.0103012   -0.4120164    0.1126870    0.0375136   -0.6358165   -0.7709281
   0.0109967   -0.4115730    0.1126481    0.5364702   -0.5070771   -0.6745906
   0.0106128   -0.4115903    0.1124397    0.3129471   -0.5215958   -0.7937266
   0.0103911   -0.4116376    0.1124044    0.0759363   -0.5302945   -0.8444060
   0.0113548   -0.4111004    0.1127759    0.8518383   -0.3329937   -0.4043348
   0.0113110   -0.4103578    0.1121703    0.7819333   -0.2960803   -0.5485589
   0.0117524   -0.4099085    0.1130997    0.9720065   -0.0908954   -0.2166598
   0.0119032   -0.4098915    0.1142373    0.9981265   -0.0093191   -0.0604699
   0.0118521   -0.4095225    0.1139302    0.9956351    0.0140214   -0.0922727
   0.0100747   -0.4112358    0.1122650   -0.3869846   -0.3368091   -0.8583720
   0.0101328   -0.4116382    0.1124265   -0.2056799   -0.5023968   -0.8398174
   0.0089790   -0.4065412    0.1137740   -0.9891593   -0.0087286    0.1465866
   0.0089111   -0.4062552    0.1130846   -0.9968762   -0.0592146   -0.0522628
   0.0090747   -0.4064078    0.1123786   -0.9010651   -0.1306087   -0.4135494
   0.0100448   -0.4108257    0.1121428   -0.5660228   -0.2084967   -0.7975885
   0.0101981   -0.4104270    0.1119535   -0.4751188   -0.2034298   -0.8560832
   0.0102677   -0.4104339    0.1119144   -0.4137026   -0.1954210   -0.8891911
   0.0104109   -0.4091723    0.1116606   -0.4734624   -0.0827021   -0.8769229
   0.0104873   -0.4100261    0.1117569   -0.2824525   -0.1890807   -0.9404622
   0.0105893   -0.4096094    0.1116479   -0.3034163   -0.1771709   -0.9362420
   0.0106792   -0.4087632    0.1115017   -0.3136226    0.0081556   -0.9495127
   0.0105640   -0.4083019    0.1115930   -0.3773906    0.1690183   -0.9104994
   0.0105658   -0.4083072    0.1115911   -0.3250824    0.1621290   -0.9316843
   0.0106245   -0.4074420    0.1117077   -0.0602139   -0.0308843   -0.9977076
   0.0100293   -0.4069681    0.1117494   -0.3406886   -0.2059750   -0.9173361
   0.0107166   -0.4078550    0.1116476   -0.0932437    0.1948552   -0.9763898
   0.0093465   -0.4064840    0.1120139   -0.7619132   -0.1790322   -0.6224434
   0.0095105   -0.4065166    0.1118499   -0.5686379   -0.2324632   -0.7890575
   0.0097139   -0.4069796    0.1152497   -0.6668973    0.1380061    0.7322583
   0.0098843   -0.4078635    0.1156512   -0.7879144    0.1733692    0.5908757
   0.0096456   -0.4058084    0.1150468   -0.5975729    0.1176679    0.7931336
   0.0091291   -0.4059805    0.1143114   -0.9349459    0.0454938    0.3518615
   0.0093367   -0.4058896    0.1147118   -0.8326825    0.0697820    0.5493362
   0.0100539   -0.4065926    0.1154375   -0.5205565    0.2348398    0.8208966
   0.0102243   -0.4069703    0.1156940   -0.4941612    0.3799692    0.7819387
   0.0112619   -0.4081289    0.1163209    0.5574049    0.1776408    0.8110139
   0.0110038   -0.4076945    0.1163207    0.2752489    0.3404679    0.8990660
   0.0109976   -0.4076725    0.1163107    0.0661429    0.4599866    0.8854589
   0.0108437   -0.4073053    0.1161132   -0.0073188    0.5131361    0.8582760
   0.0106324   -0.4069294    0.1158487   -0.1043027    0.4449691    0.8894512
   0.0115892   -0.4077793    0.1158897    0.8648662    0.1570793    0.4767939
   0.0114519   -0.4077425    0.1160709    0.6732681    0.2358544    0.7007730
   0.0118079   -0.4080068    0.1148384    0.9920890    0.0980828   -0.0783525
   0.0116598   -0.4074120    0.1155618    0.9133364    0.2435769    0.3263234
   0.0117638   -0.4075743    0.1148165    0.9957745    0.0777169   -0.0489199
   0.0117210   -0.4071053    0.1149570    0.9809675    0.1344608    0.1400826
   0.0115736   -0.4070110    0.1154027    0.8687190    0.3315965    0.3679282
   0.0115503   -0.4062419    0.1149110    0.7969725    0.2676712    0.5414674
   0.0118939   -0.4089201    0.1146678    0.9936718    0.0868901   -0.0711794
   0.0118834   -0.4087256    0.1148981    0.9910151    0.1113393   -0.0741118
   0.0107067   -0.4108358    0.1120425    0.3266350   -0.4674242   -0.8214768
   0.0104368   -0.4112432    0.1122028   -0.0238600   -0.4392670   -0.8980397
   0.0109669   -0.4104248    0.1118990    0.3815635   -0.3751791   -0.8447780
   0.0111577   -0.4099853    0.1118819    0.5862851   -0.2463329   -0.7717447
   0.0116742   -0.4095611    0.1126734    0.9562432   -0.1131571   -0.2698043
   0.0111590   -0.4095735    0.1117618    0.4722748   -0.2454248   -0.8465950
   0.0113230   -0.4091255    0.1117944    0.7806757   -0.1258803   -0.6121271
   0.0115266   -0.4094586    0.1122595    0.8967937   -0.1416740   -0.4191533
   0.0118275   -0.4086946    0.1137087    0.9963926    0.0642447   -0.0554480
   0.0118327   -0.4090398    0.1141299    0.9942820    0.0982499   -0.0418350
   0.0101978   -0.4108387    0.1120717   -0.3263219   -0.3301019   -0.8857464
   0.0089315   -0.4058020    0.1135586   -0.9882813   -0.0139070    0.1520086
   0.0089139   -0.4050670    0.1125074   -0.9735663   -0.0749933   -0.2157421
   0.0088259   -0.4041904    0.1125152   -0.9885059   -0.0720064   -0.1329331
   0.0088825   -0.4053854    0.1130557   -0.9964911   -0.0285532    0.0786778
   0.0089657   -0.4047027    0.1121675   -0.9716414   -0.0665099   -0.2269128
   0.0090415   -0.4047515    0.1119455   -0.8886060   -0.1614726   -0.4293086
   0.0093399   -0.4060682    0.1119070   -0.7518646   -0.1747155   -0.6357469
   0.0093341   -0.4056543    0.1118003   -0.7237396   -0.2055958   -0.6587347
   0.0103001   -0.4108436    0.1120384   -0.2884879   -0.3433586   -0.8938007
   0.0105007   -0.4104440    0.1118506   -0.0790085   -0.3217530   -0.9435214
   0.0107394   -0.4091999    0.1115106   -0.1053927   -0.1483607   -0.9833013
   0.0106799   -0.4087668    0.1115018   -0.2685198   -0.0635774   -0.9611738
   0.0105734   -0.4100287    0.1117399   -0.1751741   -0.2207799   -0.9594635
   0.0107488   -0.4096150    0.1116113    0.0161444   -0.2396768   -0.9707185
   0.0106802   -0.4087631    0.1115016   -0.1329832    0.0391134   -0.9903462
   0.0108549   -0.4083103    0.1115105   -0.0773753    0.2465707   -0.9660310
   0.0108489   -0.4083209    0.1115090   -0.1856362    0.1649742   -0.9686706
   0.0105844   -0.4069788    0.1116528    0.0019765   -0.2346387   -0.9720806
   0.0108074   -0.4069660    0.1116954    0.1965376   -0.1319835   -0.9715726
   0.0108568   -0.4073958    0.1117228    0.1870102    0.0520883   -0.9809760
   0.0100374   -0.4065549    0.1116336   -0.3329573   -0.2759214   -0.9016689
   0.0110336   -0.4081059    0.1115841    0.2725537    0.2802383   -0.9204243
   0.0109192   -0.4077160    0.1116939    0.2354802    0.2327776   -0.9435908
   0.0094989   -0.4056867    0.1116368   -0.6239747   -0.2248847   -0.7483865
   0.0100171   -0.4053421    0.1151506   -0.2406822    0.1683744    0.9558881
   0.0098128   -0.4053616    0.1150734   -0.4700230    0.1324675    0.8726573
   0.0094388   -0.4050035    0.1147386   -0.6644542    0.0981716    0.7408528
   0.0091543   -0.4046802    0.1142405   -0.9136408    0.0473940    0.4037503
   0.0089349   -0.4043828    0.1136236   -0.9659763    0.0052799    0.2585768
   0.0092514   -0.4042070    0.1143948   -0.8718840    0.0662500    0.4852105
   0.0104386   -0.4067568    0.1156963   -0.3644112    0.3452293    0.8648822
   0.0102484   -0.4062162    0.1154314   -0.3266253    0.2840539    0.9014595
   0.0102026   -0.4057469    0.1152835   -0.2252998    0.2451936    0.9429317
   0.0112046   -0.4073063    0.1160778    0.3421208    0.4415581    0.8294455
   0.0111235   -0.4069191    0.1158512    0.2666299    0.5646151    0.7811007
   0.0109098   -0.4066706    0.1157158    0.2754833    0.4722490    0.8373111
   0.0107058   -0.4057198    0.1153603   -0.0142314    0.3161915    0.9485886
   0.0107670   -0.4061300    0.1154837    0.2647073    0.3489172    0.8989921
   0.0115530   -0.4073702    0.1157630    0.8048747    0.3164393    0.5020387
   0.0113915   -0.4072928    0.1159180    0.6560104    0.4343153    0.6172687
   0.0116934   -0.4081813    0.1140604    0.9901342    0.1298225   -0.0527294
   0.0116790   -0.4077078    0.1142192    0.9994380   -0.0030742   -0.0333813
   0.0117073   -0.4067517    0.1145745    0.9970025    0.0204375    0.0746207
   0.0116541   -0.4062863    0.1147077    0.8995169    0.0938878    0.4266784
   0.0113059   -0.4065782    0.1153961    0.5448687    0.5039723    0.6701717
   0.0110402   -0.4061469    0.1153909    0.5317938    0.3474662    0.7723099
   0.0110144   -0.4057344    0.1152715    0.4218570    0.2553322    0.8699667
   0.0112449   -0.4053413    0.1150480    0.5502673    0.1387144    0.8233858
   0.0114017   -0.4055854    0.1149313    0.7677057    0.1184546    0.6297590
   0.0107562   -0.4100304    0.1117159    0.0786635   -0.2775839   -0.9574755
   0.0109713   -0.4100140    0.1117730    0.3579414   -0.2576274   -0.8974999
   0.0109710   -0.4096003    0.1116553    0.3502209   -0.2489582   -0.9029757
   0.0116869   -0.4089686    0.1124795    0.9424977   -0.0226433   -0.3334446
   0.0111586   -0.4091850    0.1116514    0.3476816   -0.2457681   -0.9048290
   0.0109696   -0.4091891    0.1115400    0.3746873   -0.1816054   -0.9091914
   0.0111581   -0.4091542    0.1116436    0.3318791   -0.1895205   -0.9240878
   0.0111618   -0.4091614    0.1116478    0.6480455   -0.1410536   -0.7484256
   0.0114744   -0.4086352    0.1120199    0.8846851   -0.0113210   -0.4660517
   0.0112976   -0.4087030    0.1117226    0.7595724    0.0113402   -0.6503238
   0.0111329   -0.4087395    0.1115736    0.5394720   -0.0430043   -0.8409046
   0.0116318   -0.4080733    0.1125622    0.9739551    0.1001534   -0.2034225
   0.0117049   -0.4079434    0.1131519    0.9962463    0.0464967   -0.0730168
   0.0089556   -0.4046880    0.1122364   -0.9778513   -0.0519562   -0.2027495
   0.0088211   -0.4036136    0.1131457   -0.9948330   -0.0478406    0.0895462
   0.0090153   -0.4043388    0.1118258   -0.9356191   -0.1551889   -0.3170699
   0.0088436   -0.4038201    0.1122050   -0.9878859   -0.1070337   -0.1123617
   0.0092236   -0.4040084    0.1113173   -0.7298832   -0.2765067   -0.6251517
   0.0093401   -0.4048362    0.1115350   -0.6201737   -0.2494684   -0.7437407
   0.0109379   -0.4087643    0.1114799    0.1697227   -0.0153428   -0.9853724
   0.0108577   -0.4083212    0.1115080    0.0748758    0.1115500   -0.9909340
   0.0110830   -0.4083078    0.1115464    0.4121171    0.1423767   -0.8999380
   0.0102042   -0.4053352    0.1111815   -0.2228258   -0.3498165   -0.9099325
   0.0106031   -0.4053370    0.1111464    0.1369815   -0.3523783   -0.9257784
   0.0110196   -0.4065346    0.1116394    0.3806523   -0.2571021   -0.8882580
   0.0110232   -0.4069492    0.1117513    0.4328024   -0.0962288   -0.8963382
   0.0110992   -0.4075887    0.1117872    0.4856125    0.1485441   -0.8614610
   0.0096422   -0.4048927    0.1112537   -0.5362385   -0.2823637   -0.7954364
   0.0112153   -0.4080883    0.1117056    0.6611823    0.1825086   -0.7276872
   0.0111583   -0.4078247    0.1117405    0.5634282    0.2629886   -0.7831894
   0.0107903   -0.4044646    0.1150874    0.1099646    0.1404633    0.9839603
   0.0109702   -0.4036039    0.1149995    0.1440289   -0.0071845    0.9895474
   0.0107002   -0.4053058    0.1152525    0.1237645    0.2233050    0.9668595
   0.0099423   -0.4040761    0.1149330   -0.3306724    0.0328670    0.9431731
   0.0097030   -0.4036698    0.1148015   -0.5763584    0.0335724    0.8165071
   0.0093741   -0.4036421    0.1144743   -0.8121470    0.0185165    0.5831590
   0.0088608   -0.4031152    0.1134166   -0.9499672   -0.0648457    0.3055443
   0.0109896   -0.4061437    0.1154108    0.3357067    0.3610785    0.8700134
   0.0107289   -0.4057212    0.1153558    0.2421647    0.2801851    0.9288986
   0.0117757   -0.4064147    0.1139666    0.9889100   -0.1176906    0.0905871
   0.0117208   -0.4074651    0.1133305    0.9961959   -0.0495671   -0.0716716
   0.0117908   -0.4065630    0.1134416    0.9949165   -0.0995083   -0.0154647
   0.0117545   -0.4059142    0.1143992    0.9535367   -0.0302532    0.2997540
   0.0116247   -0.4049834    0.1146513    0.7799318    0.0210322    0.6255110
   0.0114205   -0.4053721    0.1148916    0.6914272    0.0939682    0.7163088
   0.0109556   -0.4048923    0.1151180    0.3103415    0.1302872    0.9416546
   0.0110883   -0.4044757    0.1150113    0.4596353    0.0915532    0.8833761
   0.0113923   -0.4082284    0.1118810    0.8249063    0.0988716   -0.5565554
   0.0115175   -0.4081771    0.1121024    0.9017465    0.1075276   -0.4186776
   0.0116082   -0.4076014    0.1127180    0.9652707    0.0579300   -0.2547479
   0.0114111   -0.4072787    0.1122125    0.9283579    0.0718074   -0.3646853
   0.0116742   -0.4071166    0.1129261    0.9649489   -0.0604600   -0.2553785
   0.0087482   -0.4027608    0.1130425   -0.9821596   -0.1488464    0.1149232
   0.0087010   -0.4026079    0.1117516   -0.9615220   -0.2105583   -0.1764670
   0.0090961   -0.4039699    0.1115047   -0.8651470   -0.2227198   -0.4493512
   0.0100515   -0.4045301    0.1108762   -0.4148515   -0.3916854   -0.8212678
   0.0097538   -0.4033311    0.1103735   -0.5918694   -0.4484415   -0.6697693
   0.0092480   -0.4032336    0.1108563   -0.7663721   -0.3496111   -0.5389304
   0.0089966   -0.4029881    0.1111928   -0.8719193   -0.3020241   -0.3854064
   0.0104022   -0.4047179    0.1108800   -0.0782351   -0.4403670   -0.8944027
   0.0114404   -0.4052612    0.1114168    0.5267572   -0.3386866   -0.7796270
   0.0108750   -0.4047221    0.1109224    0.2583987   -0.4115870   -0.8739715
   0.0112053   -0.4065082    0.1117505    0.6231192   -0.2587756   -0.7380770
   0.0112057   -0.4069198    0.1118678    0.6776675   -0.1349723   -0.7228757
   0.0112365   -0.4073448    0.1119297    0.6934159    0.0485478   -0.7189002
   0.0113129   -0.4077850    0.1119083    0.7729140    0.1701302   -0.6112771
   0.0107669   -0.4031607    0.1150351    0.1424503   -0.0439418    0.9888261
   0.0103085   -0.4036054    0.1150458   -0.1385369    0.0138517    0.9902604
   0.0115051   -0.4040804    0.1147783    0.5110967   -0.0529135    0.8578929
   0.0113338   -0.4034153    0.1149195    0.2584045   -0.1068241    0.9601124
   0.0098922   -0.4036444    0.1149063   -0.4102351    0.0875902    0.9077638
   0.0094576   -0.4028516    0.1145640   -0.7136324   -0.0602174    0.6979274
   0.0097977   -0.4027412    0.1148309   -0.5504450   -0.0450089    0.8336573
   0.0090389   -0.4029880    0.1139795   -0.8726094   -0.0919174    0.4796916
   0.0086139   -0.4014639    0.1134091   -0.9312495   -0.1783920    0.3177273
   0.0120217   -0.4053020    0.1131722    0.9784700   -0.1963034   -0.0637298
   0.0121476   -0.4045584    0.1131934    0.9834646   -0.1749495    0.0467988
   0.0119599   -0.4051083    0.1140569    0.9359512   -0.1072167    0.3354101
   0.0118489   -0.4061599    0.1132742    0.9830895   -0.1698950   -0.0683423
   0.0117428   -0.4067146    0.1131601    0.9836609   -0.1045962   -0.1465295
   0.0116756   -0.4045602    0.1145816    0.7569606   -0.1059459    0.6448148
   0.0113760   -0.4072993    0.1121251    0.8563942    0.0204201   -0.5159185
   0.0113534   -0.4068780    0.1120479    0.8468503   -0.1695895   -0.5040675
   0.0116317   -0.4063738    0.1123210    0.9401990   -0.2144618   -0.2646354
   0.0084331   -0.4016470    0.1118993   -0.9572440   -0.2784264   -0.0785027
   0.0085643   -0.4019654    0.1126927   -0.9512130   -0.2511844    0.1791653
   0.0088452   -0.4027045    0.1113034   -0.9166323   -0.2917521   -0.2732506
   0.0100198   -0.4034592    0.1103038   -0.3116528   -0.5053666   -0.8046596
   0.0093212   -0.4028947    0.1105375   -0.6963415   -0.4442034   -0.5637304
   0.0096749   -0.4025730    0.1098451   -0.5528754   -0.5445946   -0.6306707
   0.0091667   -0.4028318    0.1107003   -0.8047835   -0.3737976   -0.4610843
   0.0089110   -0.4021500    0.1106404   -0.8777352   -0.3518469   -0.3252456
   0.0104161   -0.4037595    0.1103664   -0.0376477   -0.4936561   -0.8688420
   0.0107177   -0.4041440    0.1105830    0.1799663   -0.4632226   -0.8677770
   0.0116590   -0.4048339    0.1113491    0.5138593   -0.4339412   -0.7400295
   0.0115166   -0.4062950    0.1120429    0.8262933   -0.2949248   -0.4798528
   0.0104775   -0.4031600    0.1150693   -0.0127907   -0.0607497    0.9980711
   0.0103905   -0.4027126    0.1151098   -0.1252196   -0.1077266    0.9862632
   0.0109236   -0.4026800    0.1150244    0.1407727   -0.0856556    0.9863296
   0.0101012   -0.4036179    0.1149724   -0.3185516    0.0754707    0.9448963
   0.0102793   -0.4033635    0.1150328   -0.2104635   -0.0363457    0.9769258
   0.0117374   -0.4036788    0.1146923    0.5414855   -0.1456065    0.8280049
   0.0116830   -0.4031923    0.1148202    0.4678546   -0.1519648    0.8706427
   0.0117692   -0.4027469    0.1148417    0.5723176   -0.1202184    0.8111721
   0.0116841   -0.4024983    0.1149353    0.4685761   -0.1260024    0.8743911
   0.0112966   -0.4027197    0.1150070    0.1363140   -0.1431627    0.9802668
   0.0111000   -0.4023044    0.1150542    0.0414162   -0.2531735    0.9665340
   0.0099893   -0.4027576    0.1149425   -0.4133703   -0.0735633    0.9075866
   0.0092458   -0.4023474    0.1143516   -0.8576735   -0.1458527    0.4930753
   0.0091947   -0.4012804    0.1146233   -0.7756726   -0.2425565    0.5826649
   0.0094951   -0.4019395    0.1147089   -0.6206209   -0.1891210    0.7609619
   0.0100907   -0.4022852    0.1150892   -0.4898437   -0.1945797    0.8498187
   0.0086908   -0.4013031    0.1136922   -0.8747012   -0.2551552    0.4120603
   0.0084531   -0.4003479    0.1138789   -0.8738346   -0.3157883    0.3697174
   0.0120086   -0.4050403    0.1126448    0.9605244   -0.2451201   -0.1315639
   0.0122496   -0.4039940    0.1131245    0.9824149   -0.1611221   -0.0943428
   0.0123366   -0.4035041    0.1133496    0.9897711   -0.1162676    0.0826742
   0.0123028   -0.4034635    0.1135363    0.9776079   -0.1167605    0.1750709
   0.0120250   -0.4042069    0.1141650    0.8964607   -0.1597598    0.4133219
   0.0119206   -0.4036891    0.1145359    0.7797160   -0.1655414    0.6038535
   0.0118671   -0.4051285    0.1119873    0.9018179   -0.3293401   -0.2797491
   0.0082957   -0.4011884    0.1122624   -0.9447488   -0.3181112    0.0790882
   0.0083117   -0.4013038    0.1117310   -0.9205240   -0.3831965   -0.0761320
   0.0083105   -0.4005892    0.1132680   -0.8896954   -0.3319509    0.3134497
   0.0082018   -0.4006077    0.1129116   -0.9231640   -0.3246148    0.2058969
   0.0103388   -0.4033716    0.1101395   -0.1444814   -0.5242126   -0.8392415
   0.0101434   -0.4029830    0.1099280   -0.2752603   -0.6033520   -0.7484639
   0.0092378   -0.4021874    0.1100185   -0.7416743   -0.4839599   -0.4644374
   0.0097486   -0.4023828    0.1095638   -0.5542269   -0.6841388   -0.4741168
   0.0088295   -0.4015987    0.1101619   -0.7933949   -0.5654661   -0.2253279
   0.0112124   -0.4037231    0.1104616    0.2015409   -0.5469466   -0.8125458
   0.0105988   -0.4033086    0.1100960    0.0049542   -0.5872273   -0.8094069
   0.0117063   -0.4044101    0.1111365    0.5699034   -0.4634375   -0.6785542
   0.0119364   -0.4040167    0.1110566    0.7352614   -0.3896199   -0.5546053
   0.0117094   -0.4055787    0.1119431    0.8461882   -0.3331800   -0.4158804
   0.0115832   -0.4040803    0.1108025    0.4687700   -0.4769541   -0.7434847
   0.0102229   -0.4019731    0.1152218   -0.1706077   -0.2582860    0.9508845
   0.0118790   -0.4032198    0.1146770    0.6497444   -0.1359933    0.7478890
   0.0119142   -0.4023234    0.1147655    0.7270855   -0.0472457    0.6849193
   0.0121298   -0.4028236    0.1144669    0.8343894   -0.0371931    0.5499190
   0.0118542   -0.4017009    0.1148557    0.7709336   -0.0433614    0.6354378
   0.0115159   -0.4022676    0.1150476    0.2233354   -0.1837367    0.9572681
   0.0116156   -0.4022762    0.1150042    0.5166705   -0.1501835    0.8429095
   0.0115703   -0.4021622    0.1150593    0.4183372   -0.2568316    0.8712241
   0.0112792   -0.4021288    0.1151350    0.0672625   -0.3949750    0.9162262
   0.0111654   -0.4017717    0.1152532    0.0319730   -0.3700378    0.9284663
   0.0104025   -0.4017897    0.1153003   -0.0786338   -0.4046824    0.9110702
   0.0090855   -0.4015924    0.1143392   -0.8579113   -0.1989807    0.4737034
   0.0093784   -0.4014169    0.1147847   -0.7507920   -0.3244013    0.5753913
   0.0092636   -0.4010019    0.1148882   -0.7990245   -0.3506565    0.4884668
   0.0088469   -0.4012159    0.1140805   -0.8501021   -0.2747179    0.4492843
   0.0088879   -0.4001574    0.1148954   -0.8151061   -0.1813453    0.5501963
   0.0098145   -0.4018654    0.1150254   -0.6013104   -0.3323698    0.7266059
   0.0080658   -0.4001244    0.1131304   -0.9077031   -0.3273724    0.2624928
   0.0081530   -0.3997175    0.1138010   -0.8698172   -0.3016761    0.3903966
   0.0084707   -0.3998506    0.1143395   -0.8270505   -0.2055339    0.5232049
   0.0084087   -0.3997488    0.1142716   -0.8526310   -0.2501133    0.4587632
   0.0119482   -0.4050596    0.1122886    0.9516028   -0.2811401   -0.1241464
   0.0123697   -0.4031428    0.1129974    0.9972878   -0.0732752   -0.0069071
   0.0121070   -0.4043636    0.1122601    0.9776560   -0.1976725   -0.0715151
   0.0121743   -0.4039599    0.1124927    0.9890649   -0.1320800   -0.0656162
   0.0122862   -0.4032433    0.1125489    0.9825382   -0.1404487   -0.1220362
   0.0123150   -0.4029137    0.1140457    0.9515322   -0.1100172    0.2871981
   0.0120684   -0.4039660    0.1112773    0.9165507   -0.2453737   -0.3157953
   0.0120586   -0.4043234    0.1116446    0.9416185   -0.2822557   -0.1835383
   0.0078088   -0.3999001    0.1121785   -0.9355603   -0.3285388    0.1295729
   0.0076434   -0.3995706    0.1116967   -0.9734684   -0.2280908    0.0182744
   0.0082772   -0.4010297    0.1110678   -0.8829309   -0.4608286   -0.0898329
   0.0105184   -0.4028247    0.1096349   -0.0571989   -0.7872205   -0.6140131
   0.0091684   -0.4017635    0.1095798   -0.7516586   -0.5797008   -0.3145731
   0.0099640   -0.4022519    0.1091094   -0.4123708   -0.8164153   -0.4042479
   0.0096254   -0.4019280    0.1087943   -0.5386965   -0.7379251   -0.4065374
   0.0095627   -0.4020961    0.1093639   -0.6921065   -0.6846777   -0.2284842
   0.0091580   -0.4017460    0.1095683   -0.7212078   -0.6645565   -0.1955093
   0.0088998   -0.4013919    0.1093018   -0.7803860   -0.5863911   -0.2171246
   0.0081973   -0.4007697    0.1101921   -0.8000789   -0.5985310   -0.0404284
   0.0083478   -0.4008848    0.1096519   -0.7680019   -0.5673321   -0.2971656
   0.0085674   -0.4011170    0.1095751   -0.7409579   -0.6034965   -0.2945731
   0.0112869   -0.4033387    0.1102072    0.1645210   -0.5789739   -0.7985750
   0.0116357   -0.4036879    0.1105885    0.4234522   -0.5498677   -0.7199540
   0.0114402   -0.4036511    0.1104781    0.2397133   -0.6141148   -0.7519312
   0.0117694   -0.4040517    0.1109116    0.5982864   -0.4265051   -0.6783413
   0.0119676   -0.4036163    0.1108816    0.7842658   -0.2915616   -0.5476486
   0.0118044   -0.4036737    0.1107359    0.6509375   -0.3963421   -0.6474514
   0.0096974   -0.4008966    0.1154530   -0.4346544   -0.3385774    0.8345303
   0.0120770   -0.4020552    0.1145261    0.8708940    0.0227338    0.4909448
   0.0122727   -0.4024447    0.1141863    0.9047347    0.0371544    0.4243520
   0.0122759   -0.4020272    0.1140859    0.9169590    0.0732895    0.3921925
   0.0122270   -0.4011443    0.1141195    0.9327444    0.0284616    0.3594133
   0.0121645   -0.4006805    0.1142465    0.9235668    0.0561626    0.3793022
   0.0117429   -0.4015343    0.1150234    0.7296980   -0.0952613    0.6771012
   0.0119777   -0.4005905    0.1146669    0.8424072    0.0759083    0.5334679
   0.0114186   -0.4017878    0.1152455    0.3341508   -0.2732644    0.9020365
   0.0108730   -0.4016671    0.1153107    0.0725269   -0.4426423    0.8937604
   0.0108769   -0.4013026    0.1155088    0.1120441   -0.4390194    0.8914640
   0.0112494   -0.4013115    0.1154368    0.2727244   -0.2489952    0.9293131
   0.0106485   -0.4011799    0.1156059    0.1157601   -0.3699612    0.9218071
   0.0103559   -0.4010656    0.1156612   -0.0841753   -0.2994060    0.9504055
   0.0100614   -0.4008011    0.1156772   -0.3189420   -0.2880345    0.9029464
   0.0093342   -0.4008273    0.1151800   -0.7510923   -0.3563282    0.5557793
   0.0092187   -0.4003701    0.1152721   -0.7056553   -0.1912698    0.6822510
   0.0091705   -0.4000674    0.1152790   -0.6907935   -0.0123991    0.7229458
   0.0089784   -0.3996820    0.1150622   -0.7380453    0.1152789    0.6648307
   0.0085102   -0.3993865    0.1144495   -0.7070189    0.0799293    0.7026632
   0.0088290   -0.3993106    0.1147672   -0.7432865    0.2145217    0.6336447
   0.0086743   -0.3993503    0.1145995   -0.7032692    0.1916231    0.6846116
   0.0094063   -0.4004726    0.1154168   -0.5717013   -0.2023585    0.7951155
   0.0077103   -0.3993614    0.1126435   -0.9641838   -0.2028695    0.1708614
   0.0077667   -0.3992832    0.1129900   -0.9637754   -0.1492754    0.2210288
   0.0079663   -0.3993848    0.1135891   -0.9061170   -0.2190092    0.3619213
   0.0078355   -0.3992115    0.1133145   -0.9480567   -0.1203054    0.2944744
   0.0082226   -0.3994718    0.1140741   -0.8564975   -0.1601886    0.4906645
   0.0083522   -0.3994251    0.1142883   -0.7840410   -0.0570971    0.6180773
   0.0123534   -0.4024907    0.1139682    0.9896218   -0.0320617    0.1400739
   0.0123698   -0.4027639    0.1127280    0.9945856   -0.0989204   -0.0318477
   0.0121380   -0.4040327    0.1116275    0.9710534   -0.1860859   -0.1497577
   0.0121989   -0.4038250    0.1119047    0.9908290   -0.1282609   -0.0425097
   0.0122433   -0.4033256    0.1121773    0.9978818   -0.0589825    0.0274412
   0.0123381   -0.4027294    0.1123013    0.9721066   -0.1799664   -0.1504021
   0.0122555   -0.4029841    0.1117360    0.9900073   -0.0667229   -0.1242323
   0.0121148   -0.4031612    0.1109447    0.9344308   -0.1467442   -0.3245077
   0.0076785   -0.3994452    0.1122617   -0.9723901   -0.2021981    0.1165053
   0.0077156   -0.3997989    0.1106593   -0.9694212   -0.2374386   -0.0620113
   0.0076177   -0.3992797    0.1110349   -0.9984160   -0.0271964   -0.0492527
   0.0075972   -0.3991601    0.1118487   -0.9973073   -0.0733161   -0.0016794
   0.0076292   -0.3989255    0.1112415   -0.9979294    0.0340901   -0.0545413
   0.0081182   -0.4006396    0.1107861   -0.8705514   -0.4920762   -0.0011733
   0.0077552   -0.3998515    0.1104143   -0.9538716   -0.2972685   -0.0419562
   0.0111733   -0.4028633    0.1098127    0.1550230   -0.7697034   -0.6192935
   0.0111318   -0.4029667    0.1099228    0.1549056   -0.6514930   -0.7426716
   0.0109141   -0.4025857    0.1092787    0.2861135   -0.7859051   -0.5481717
   0.0110802   -0.4026339    0.1094496    0.4130186   -0.7785419   -0.4725338
   0.0107318   -0.4025436    0.1091415    0.0349348   -0.8147877   -0.5787060
   0.0104409   -0.4025392    0.1092251   -0.2778245   -0.8308293   -0.4822201
   0.0092672   -0.4017913    0.1093698   -0.6970202   -0.6975390   -0.1661390
   0.0093269   -0.4018301    0.1092657   -0.7310127   -0.6600824   -0.1729499
   0.0100726   -0.4022201    0.1088904   -0.3574539   -0.8055563   -0.4725524
   0.0093602   -0.4018508    0.1091632   -0.6189676   -0.7647629   -0.1789325
   0.0097023   -0.4017875    0.1085271   -0.3825680   -0.6617998   -0.6447192
   0.0093934   -0.4015421    0.1085761   -0.6238897   -0.4785273   -0.6178780
   0.0093013   -0.4016703    0.1087913   -0.6182611   -0.6539605   -0.4359918
   0.0090828   -0.4016125    0.1091976   -0.7281413   -0.6697930   -0.1455598
   0.0089823   -0.4014376    0.1090847   -0.8028322   -0.4962039   -0.3305180
   0.0088942   -0.4011623    0.1089557   -0.7681747   -0.4848547   -0.4181191
   0.0080515   -0.4005926    0.1099453   -0.7704355   -0.6269255   -0.1157309
   0.0081259   -0.4006800    0.1103044   -0.8365961   -0.5474173    0.0210056
   0.0081980   -0.4004941    0.1094511   -0.7398517   -0.3622958   -0.5668873
   0.0083776   -0.4005917    0.1093140   -0.7074252   -0.4577202   -0.5385552
   0.0080719   -0.4004553    0.1096398   -0.8363563   -0.3959008   -0.3791711
   0.0084717   -0.4009259    0.1094614   -0.7594278   -0.4541504   -0.4658506
   0.0115141   -0.4033267    0.1102424    0.3458852   -0.5453957   -0.7634834
   0.0115417   -0.4031650    0.1101424    0.3128309   -0.5708983   -0.7590863
   0.0113641   -0.4029573    0.1099485    0.1739015   -0.6683055   -0.7232745
   0.0117053   -0.4033028    0.1103436    0.6541632   -0.4252752   -0.6254691
   0.0119932   -0.4032135    0.1107168    0.8431932   -0.2507394   -0.4755575
   0.0097770   -0.4004162    0.1156392   -0.3845906   -0.0620423    0.9209999
   0.0124287   -0.4017076    0.1135406    0.9842366    0.0131838    0.1763646
   0.0123888   -0.4010877    0.1136456    0.9691448    0.0165234    0.2459375
   0.0124471   -0.4008466    0.1134640    0.9879581    0.0516498    0.1458461
   0.0123190   -0.4003587    0.1137026    0.9256978    0.3146134    0.2100048
   0.0120613   -0.4002213    0.1143477    0.8999831    0.2608733    0.3492499
   0.0114440   -0.4013294    0.1153370    0.5835885   -0.0950949    0.8064623
   0.0116306   -0.4012810    0.1151684    0.7210961    0.0316170    0.6921132
   0.0114998   -0.4004837    0.1151932    0.6918169    0.1488240    0.7065698
   0.0118381   -0.4001373    0.1147440    0.7661126    0.2345365    0.5983846
   0.0113126   -0.4008745    0.1154195    0.5518229    0.0550159    0.8321446
   0.0108257   -0.4008793    0.1156547    0.3233868   -0.0783230    0.9430199
   0.0105430   -0.4008243    0.1157083    0.0975086   -0.1484681    0.9840982
