NORM_ASCII
1502 3001
   0.0356506   -0.3899953    0.0483112   -0.9668480   -0.1916111    0.1687900
   0.0355729   -0.3895188    0.0483336   -0.9734457   -0.1882299    0.1302804
   0.0354853   -0.3889701    0.0477122   -0.9774876   -0.1615809   -0.1356818
   0.0354560   -0.3884470    0.0474916   -0.9200849   -0.1292015   -0.3697982
   0.0355645   -0.3868278    0.0469952   -0.7902779   -0.1565922   -0.5924017
   0.0358741   -0.3856472    0.0465403   -0.5512647   -0.1414733   -0.8222484
   0.0356733   -0.3862586    0.0467991   -0.6542197   -0.1433806   -0.7425891
   0.0359776   -0.3909364    0.0486973   -0.8447601   -0.1496140    0.5138055
   0.0359036   -0.3904583    0.0487154   -0.8596945   -0.1900991    0.4741178
   0.0342797   -0.3857826    0.0496230   -0.7874885   -0.6062374   -0.1110766
   0.0338628   -0.3851998    0.0494515   -0.5936100   -0.7396365   -0.3171200
   0.0345123   -0.3858978    0.0487679   -0.8652649   -0.4475351   -0.2258958
   0.0334520   -0.3849798    0.0495246   -0.5719772   -0.6937330   -0.4376946
   0.0338160   -0.3846051    0.0485649   -0.7481891   -0.5513678   -0.3690618
   0.0332679   -0.3839100    0.0483209   -0.6543837   -0.6234225   -0.4279326
   0.0332618   -0.3849449    0.0497422   -0.7909359   -0.5637387   -0.2379477
   0.0332748   -0.3849556    0.0497284   -0.6808354   -0.6467689   -0.3437340
   0.0337381   -0.3827659    0.0469753   -0.6898835   -0.2766315   -0.6689811
   0.0336817   -0.3835011    0.0474090   -0.6719073   -0.4620896   -0.5788038
   0.0337859   -0.3839155    0.0477166   -0.6606578   -0.5442373   -0.5170464
   0.0338862   -0.3826500    0.0467854   -0.6713504   -0.2833467   -0.6848381
   0.0378311   -0.3832872    0.0454369    0.2264758   -0.4834051   -0.8455934
   0.0371827   -0.3829911    0.0452386   -0.3382148   -0.4713887   -0.8144958
   0.0373756   -0.3832269    0.0453268   -0.1556581   -0.5126600   -0.8443638
   0.0381524   -0.3829599    0.0453313    0.3224786   -0.4018016   -0.8570665
   0.0383301   -0.3830317    0.0454509    0.4145393   -0.4005817   -0.8171239
   0.0367758   -0.3827374    0.0453238   -0.4836997   -0.4672315   -0.7400874
   0.0366253   -0.3828415    0.0455145   -0.4540298   -0.4347984   -0.7776936
   0.0386206   -0.3830291    0.0456779    0.8313680   -0.2980333   -0.4690453
   0.0385085   -0.3830569    0.0455625    0.6367900   -0.3511122   -0.6864537
   0.0386796   -0.3831959    0.0460153    0.9344147   -0.3186911   -0.1590756
   0.0385415   -0.3836715    0.0465609    0.9693511   -0.2396348   -0.0541635
   0.0385608   -0.3837311    0.0471238    0.9876382   -0.1261042    0.0931046
   0.0360926   -0.3835460    0.0459208   -0.3405360   -0.2879971   -0.8950380
   0.0365739   -0.3832658    0.0456983   -0.2863768   -0.3042509   -0.9085261
   0.0351904   -0.3849194    0.0468696   -0.5633355   -0.2663417   -0.7821222
   0.0347566   -0.3835192    0.0465644   -0.4505224   -0.4503588   -0.7708480
   0.0342347   -0.3837718    0.0470974   -0.6106772   -0.4412202   -0.6575699
   0.0340002   -0.3853537    0.0511536   -0.2827587   -0.7567768    0.5893526
   0.0340272   -0.3855391    0.0508320   -0.3720211   -0.8940993    0.2493728
   0.0338516   -0.3854751    0.0507121   -0.4183139   -0.8996224    0.1252720
   0.0336706   -0.3853880    0.0505938   -0.5215147   -0.8519427    0.0470753
   0.0332986   -0.3851639    0.0503631   -0.6940123   -0.7198483    0.0128612
   0.0333004   -0.3851258    0.0500390   -0.6466257   -0.7189075   -0.2550436
   0.0349896   -0.3853822    0.0509521    0.4610138   -0.4725582    0.7511025
   0.0346813   -0.3855086    0.0510142    0.2749861   -0.6178355    0.7366559
   0.0344625   -0.3852870    0.0512374    0.2099720   -0.4960989    0.8424949
   0.0343475   -0.3855141    0.0510882    0.0002871   -0.6910200    0.7228356
   0.0341962   -0.3855689    0.0509561   -0.2651401   -0.8292206    0.4920305
   0.0352723   -0.3851314    0.0509029    0.5600632   -0.3140456    0.7666189
   0.0385133   -0.3841434    0.0469784    0.9898683   -0.1310847   -0.0545672
   0.0383871   -0.3847431    0.0465789    0.9229630   -0.0838779   -0.3756379
   0.0384652   -0.3838202    0.0463553    0.8899157   -0.3554838   -0.2857994
   0.0383454   -0.3840244    0.0462083    0.8600613   -0.2277681   -0.4565263
   0.0382591   -0.3852634    0.0464862    0.7253991   -0.1321956   -0.6755149
   0.0379370   -0.3848574    0.0461713    0.4811592   -0.1875472   -0.8563363
   0.0377686   -0.3844248    0.0459892    0.3145100   -0.2657493   -0.9112962
   0.0372917   -0.3845235    0.0459273    0.0743292   -0.2684678   -0.9604167
   0.0360078   -0.3845520    0.0462611   -0.3503801   -0.2283791   -0.9083374
   0.0367095   -0.3841163    0.0459159   -0.2320596   -0.2759898   -0.9327261
   0.0357403   -0.3885551    0.0492659   -0.6253896   -0.3528748    0.6959650
   0.0357249   -0.3890409    0.0490366   -0.7807254   -0.2874627    0.5548270
   0.0359484   -0.3899588    0.0489073   -0.6521287   -0.2152010    0.7269228
   0.0352209   -0.3871295    0.0496668   -0.6449888   -0.4861963    0.5895783
   0.0354429   -0.3867211    0.0499821   -0.1148009   -0.4131360    0.9034044
   0.0352352   -0.3867871    0.0499181   -0.3580459   -0.4879998    0.7960272
   0.0351888   -0.3862431    0.0502104   -0.0033579   -0.5412163    0.8408767
   0.0350796   -0.3857657    0.0505858    0.2936624   -0.6241199    0.7240419
   0.0349397   -0.3859452    0.0504581    0.0267260   -0.7161075    0.6974782
   0.0358088   -0.3846633    0.0464125   -0.4945979   -0.1833095   -0.8495708
   0.0357932   -0.3899897    0.0486903   -0.9282947   -0.1957812    0.3161307
   0.0354737   -0.3890540    0.0483824   -0.9579832   -0.2340028    0.1658639
   0.0357200   -0.3895201    0.0487952   -0.8836636   -0.2174611    0.4145472
   0.0353970   -0.3885007    0.0477599   -0.9766924   -0.1769936   -0.1214303
   0.0351141   -0.3871008    0.0479143   -0.9350461   -0.2320312   -0.2680491
   0.0351069   -0.3862560    0.0474598   -0.8517817   -0.2519662   -0.4593267
   0.0351553   -0.3859898    0.0472320   -0.7748717   -0.2148787   -0.5944755
   0.0340597   -0.3855534    0.0498472   -0.6556479   -0.7327846   -0.1820783
   0.0340572   -0.3855895    0.0501712   -0.5978217   -0.7942272    0.1086844
   0.0344935   -0.3860197    0.0497275   -0.7277736   -0.6539252    0.2067063
   0.0344338   -0.3860106    0.0494763   -0.8603456   -0.5095688   -0.0120479
   0.0334963   -0.3852857    0.0501495   -0.5216458   -0.8383654   -0.1582058
   0.0344922   -0.3853127    0.0480419   -0.8347051   -0.3798675   -0.3987080
   0.0347042   -0.3863125    0.0485711   -0.9243286   -0.3568068   -0.1352977
   0.0341049   -0.3847112    0.0480915   -0.7621386   -0.4799011   -0.4345569
   0.0342924   -0.3847834    0.0478832   -0.7326139   -0.4707511   -0.4915997
   0.0344029   -0.3844400    0.0473885   -0.7283743   -0.4239133   -0.5383015
   0.0384030   -0.3834280    0.0457389    0.5299788   -0.5480673   -0.6471048
   0.0378510   -0.3839930    0.0458314    0.3429119   -0.4412846   -0.8292643
   0.0373088   -0.3840183    0.0457378   -0.0986956   -0.3898754   -0.9155634
   0.0385562   -0.3833829    0.0458700    0.7601713   -0.4729736   -0.4454611
   0.0349411   -0.3850442    0.0471637   -0.7163569   -0.3198448   -0.6201065
   0.0347532   -0.3858078    0.0506562   -0.0764233   -0.8633886    0.4987180
   0.0342179   -0.3856266    0.0506224   -0.4003004   -0.8994712    0.1752460
   0.0342467   -0.3856695    0.0502980   -0.5324854   -0.8031452    0.2672396
   0.0383841   -0.3836610    0.0459984    0.7129692   -0.4483891   -0.5390938
   0.0381681   -0.3842626    0.0461322    0.5395225   -0.3043315   -0.7850463
   0.0351231   -0.3873935    0.0491861   -0.8558723   -0.3973275    0.3310793
   0.0353652   -0.3881540    0.0490128   -0.8583684   -0.3286677    0.3939304
   0.0354518   -0.3886034    0.0487887   -0.8995799   -0.3191888    0.2981183
   0.0350156   -0.3869238    0.0495611   -0.8440645   -0.4725796    0.2534238
   0.0349093   -0.3864616    0.0499351   -0.6188971   -0.5775920    0.5323100
   0.0350685   -0.3864453    0.0500632   -0.2651659   -0.5559428    0.7877910
   0.0348185   -0.3860724    0.0503022   -0.3156643   -0.7110289    0.6283264
   0.0345981   -0.3858432    0.0505261   -0.3514651   -0.8340543    0.4252361
   0.0352453   -0.3879321    0.0488042   -0.9549584   -0.2801295    0.0978877
   0.0350207   -0.3872601    0.0489699   -0.9404313   -0.3388824    0.0273449
   0.0348906   -0.3867332    0.0484139   -0.9270788   -0.3240504   -0.1884578
   0.0349788   -0.3866497    0.0479825   -0.9092806   -0.2784041   -0.3093540
   0.0349128   -0.3856005    0.0474807   -0.8114785   -0.2892347   -0.5077853
   0.0344210   -0.3857734    0.0504065   -0.5772900   -0.7555030    0.3097604
   0.0346494   -0.3860156    0.0501747   -0.6053401   -0.7243194    0.3300375
3 0 1 2 
3 3 0 2 
3 1 0 4 
3 5 0 3 
3 5 4 0 
3 1 6 2 
3 1 4 6 
3 2 7 8 
3 8 3 2 
3 9 7 2 
3 9 2 10 
3 2 11 12 
3 13 2 6 
3 11 2 13 
3 10 2 12 
3 14 3 15 
3 3 8 15 
3 3 14 5 
3 6 4 16 
3 16 4 17 
3 18 17 4 
3 4 5 18 
3 18 5 19 
3 19 5 14 
3 6 16 13 
3 7 20 8 
3 21 7 9 
3 20 7 21 
3 8 20 22 
3 15 8 22 
3 10 23 9 
3 9 23 21 
3 10 24 25 
3 10 12 24 
3 26 10 25 
3 23 10 26 
3 12 11 27 
3 11 28 27 
3 29 11 13 
3 28 11 29 
3 12 30 31 
3 27 30 12 
3 31 24 12 
3 13 32 29 
3 13 16 32 
3 33 14 15 
3 19 14 33 
3 22 34 15 
3 33 15 34 
3 35 16 17 
3 32 16 35 
3 36 17 37 
3 35 17 36 
3 17 18 37 
3 37 18 38 
3 18 19 38 
3 38 19 39 
3 19 40 39 
3 40 19 33 
3 20 41 22 
3 41 20 42 
3 42 20 21 
3 42 21 43 
3 43 21 23 
3 22 41 34 
3 44 23 26 
3 23 44 43 
3 45 25 24 
3 45 24 31 
3 46 25 45 
3 46 26 25 
3 47 44 26 
3 26 46 47 
3 27 28 48 
3 27 49 30 
3 48 49 27 
3 48 28 50 
3 50 28 29 
3 50 29 51 
3 29 32 51 
3 31 30 45 
3 30 49 52 
3 45 30 52 
3 32 53 51 
3 53 32 35 
3 40 33 34 
3 40 34 54 
3 41 54 34 
3 55 35 36 
3 53 35 55 
3 36 37 56 
3 36 57 55 
3 56 57 36 
3 58 56 37 
3 37 38 58 
3 38 39 58 
3 58 39 59 
3 39 60 59 
3 39 61 62 
3 62 60 39 
3 39 40 61 
3 61 40 54 
3 41 63 54 
3 42 63 41 
3 42 43 64 
3 65 42 64 
3 63 42 65 
3 44 64 43 
3 66 64 44 
3 47 66 44 
3 67 45 52 
3 68 45 67 
3 68 46 45 
3 69 46 68 
3 47 46 69 
3 47 70 71 
3 71 72 47 
3 73 70 47 
3 72 66 47 
3 69 73 47 
3 50 49 48 
3 74 49 75 
3 49 50 75 
3 52 49 74 
3 76 75 50 
3 77 50 78 
3 76 50 77 
3 51 78 50 
3 79 80 51 
3 78 51 80 
3 51 53 79 
3 81 52 74 
3 67 52 81 
3 55 79 53 
3 54 82 83 
3 61 54 84 
3 54 85 82 
3 54 83 84 
3 63 85 54 
3 55 86 79 
3 87 86 55 
3 55 57 87 
3 88 56 58 
3 56 89 57 
3 88 89 56 
3 57 89 87 
3 58 90 88 
3 58 59 90 
3 59 60 90 
3 62 91 60 
3 60 91 92 
3 90 60 92 
3 93 62 61 
3 61 94 95 
3 96 97 61 
3 97 93 61 
3 61 95 96 
3 84 98 61 
3 61 98 94 
3 93 91 62 
3 99 63 65 
3 85 63 99 
3 66 65 64 
3 100 65 66 
3 65 100 99 
3 100 66 72 
3 81 101 67 
3 67 102 68 
3 101 102 67 
3 68 103 69 
3 102 103 68 
3 103 73 69 
3 71 70 104 
3 70 105 104 
3 70 73 106 
3 70 106 105 
3 71 107 72 
3 104 108 71 
3 71 108 109 
3 109 107 71 
3 110 72 107 
3 111 100 72 
3 111 72 112 
3 110 112 72 
3 113 73 103 
3 114 73 113 
3 114 106 73 
3 75 115 74 
3 116 74 115 
3 81 74 116 
3 75 117 118 
3 117 75 76 
3 115 75 118 
3 119 117 76 
3 119 76 120 
3 120 76 77 
3 121 77 78 
3 120 77 122 
3 121 122 77 
3 78 80 121 
3 86 80 79 
3 123 80 124 
3 123 125 80 
3 125 121 80 
3 126 124 80 
3 80 86 126 
3 116 127 81 
3 127 101 81 
3 82 128 83 
3 129 82 85 
3 129 130 82 
3 128 82 130 
3 131 83 132 
3 83 128 132 
3 133 84 83 
3 133 83 131 
3 84 133 98 
3 99 134 85 
3 134 129 85 
3 86 87 126 
3 135 126 87 
3 89 135 87 
3 136 88 90 
3 88 137 89 
3 88 136 137 
3 138 135 89 
3 89 137 138 
3 90 139 136 
3 90 92 139 
3 140 91 93 
3 92 91 140 
3 140 141 92 
3 92 141 139 
3 142 93 97 
3 140 93 142 
3 95 94 143 
3 144 94 98 
3 94 144 145 
3 145 143 94 
3 146 96 95 
3 143 146 95 
3 97 96 142 
3 96 146 142 
3 147 98 133 
3 148 144 98 
3 149 148 98 
3 98 147 149 
3 111 99 100 
3 99 111 150 
3 99 150 134 
3 151 101 127 
3 152 101 151 
3 152 102 101 
3 153 102 152 
3 153 103 102 
3 113 103 153 
3 104 154 108 
3 155 104 105 
3 155 141 104 
3 104 156 154 
3 156 104 141 
3 141 155 105 
3 139 105 106 
3 105 139 141 
3 139 106 114 
3 107 157 110 
3 157 107 158 
3 158 107 109 
3 108 159 109 
3 154 160 108 
3 159 108 161 
3 160 161 108 
3 162 163 109 
3 163 158 109 
3 109 159 162 
3 157 164 110 
3 112 110 164 
3 165 150 111 
3 112 165 111 
3 112 164 166 
3 167 165 112 
3 166 168 112 
3 168 169 112 
3 170 167 112 
3 112 169 170 
3 153 136 113 
3 113 139 114 
3 136 139 113 
3 171 115 118 
3 116 115 171 
3 171 172 116 
3 172 127 116 
3 118 117 173 
3 117 174 173 
3 174 117 119 
3 175 118 173 
3 171 118 175 
3 176 177 119 
3 177 178 119 
3 119 178 174 
3 176 119 179 
3 179 119 120 
3 180 120 181 
3 179 120 180 
3 120 122 181 
3 125 122 121 
3 125 181 122 
3 124 182 123 
3 182 183 123 
3 123 183 125 
3 124 184 182 
3 185 184 124 
3 126 185 124 
3 186 181 125 
3 125 183 186 
3 187 126 188 
3 185 126 187 
3 126 135 188 
3 188 127 172 
3 151 127 188 
3 128 130 132 
3 129 134 189 
3 189 130 129 
3 189 132 130 
3 190 131 132 
3 190 191 131 
3 192 131 191 
3 133 131 192 
3 193 194 132 
3 132 194 190 
3 132 195 193 
3 195 132 189 
3 133 192 147 
3 189 134 150 
3 188 135 151 
3 135 138 151 
3 137 136 153 
3 152 137 153 
3 138 137 152 
3 151 138 152 
3 141 140 156 
3 140 196 156 
3 142 196 140 
3 196 142 197 
3 142 146 197 
3 198 146 143 
3 143 199 198 
3 143 145 199 
3 144 148 200 
3 200 201 144 
3 202 145 144 
3 144 201 202 
3 203 199 145 
3 203 145 204 
3 204 145 202 
3 146 198 205 
3 205 197 146 
3 147 206 207 
3 192 206 147 
3 149 147 208 
3 208 147 207 
3 149 200 148 
3 200 149 208 
3 167 189 150 
3 167 150 165 
3 160 154 209 
3 154 156 209 
3 197 209 156 
3 156 196 197 
3 210 164 157 
3 157 211 210 
3 157 158 211 
3 158 212 211 
3 163 212 158 
3 213 162 159 
3 159 161 214 
3 159 214 215 
3 159 215 213 
3 209 161 160 
3 209 214 161 
3 162 212 163 
3 216 212 162 
3 162 217 216 
3 213 217 162 
3 166 164 210 
3 210 218 166 
3 166 219 168 
3 218 219 166 
3 195 189 167 
3 220 167 170 
3 220 195 167 
3 168 221 169 
3 219 221 168 
3 221 170 169 
3 170 222 220 
3 223 170 221 
3 170 223 222 
3 172 171 224 
3 175 225 171 
3 171 225 224 
3 224 187 172 
3 188 172 187 
3 173 174 226 
3 227 173 226 
3 175 173 227 
3 174 178 226 
3 228 175 227 
3 225 175 228 
3 177 176 229 
3 176 230 229 
3 230 176 179 
3 231 177 232 
3 177 233 178 
3 231 233 177 
3 229 232 177 
3 178 233 234 
3 226 178 234 
3 179 235 230 
3 180 235 179 
3 180 181 236 
3 236 235 180 
3 236 181 186 
3 237 183 182 
3 182 238 237 
3 184 238 182 
3 237 239 183 
3 183 239 186 
3 184 240 238 
3 184 185 240 
3 240 185 187 
3 186 239 236 
3 240 187 224 
3 194 241 190 
3 191 190 241 
3 242 191 241 
3 192 191 243 
3 242 243 191 
3 243 206 192 
3 193 222 194 
3 193 220 222 
3 220 193 195 
3 244 194 222 
3 244 241 194 
3 245 209 197 
3 246 245 197 
3 197 205 246 
3 198 247 205 
3 199 203 198 
3 203 248 198 
3 247 198 249 
3 249 198 248 
3 200 250 201 
3 200 208 250 
3 251 202 201 
3 251 201 250 
3 204 202 251 
3 248 203 252 
3 252 203 204 
3 204 253 252 
3 254 253 204 
3 204 255 254 
3 251 255 204 
3 256 257 205 
3 256 205 247 
3 246 205 257 
3 206 258 207 
3 206 243 259 
3 206 260 258 
3 259 260 206 
3 207 258 261 
3 207 261 208 
3 262 208 261 
3 263 264 208 
3 208 262 263 
3 208 265 250 
3 208 264 265 
3 209 245 214 
3 218 210 266 
3 267 210 211 
3 210 268 269 
3 267 270 210 
3 210 270 268 
3 269 266 210 
3 267 211 271 
3 271 211 212 
3 271 212 272 
3 216 272 212 
3 215 217 213 
3 245 273 214 
3 214 273 215 
3 215 273 274 
3 275 217 215 
3 274 275 215 
3 217 272 216 
3 276 277 217 
3 217 277 272 
3 217 275 278 
3 279 276 217 
3 279 217 278 
3 266 280 218 
3 280 281 218 
3 218 281 219 
3 219 282 221 
3 283 282 219 
3 283 219 281 
3 221 282 223 
3 222 223 244 
3 223 284 244 
3 282 284 223 
3 240 224 225 
3 228 240 225 
3 285 226 234 
3 227 226 285 
3 286 227 285 
3 228 227 286 
3 286 287 228 
3 287 240 228 
3 232 229 288 
3 229 289 288 
3 289 229 290 
3 290 229 291 
3 229 292 291 
3 229 230 292 
3 230 293 292 
3 235 294 230 
3 230 294 293 
3 231 232 295 
3 231 296 233 
3 295 296 231 
3 232 288 297 
3 295 232 297 
3 233 296 298 
3 234 233 298 
3 299 234 298 
3 285 234 299 
3 300 235 301 
3 294 235 300 
3 301 235 236 
3 239 301 236 
3 302 239 237 
3 237 303 302 
3 238 303 237 
3 238 287 303 
3 238 240 287 
3 301 239 300 
3 239 302 300 
3 284 241 244 
3 241 304 242 
3 304 241 284 
3 305 242 304 
3 305 243 242 
3 306 243 305 
3 259 243 306 
3 307 273 245 
3 308 245 246 
3 308 307 245 
3 246 257 308 
3 247 309 256 
3 249 309 247 
3 248 278 310 
3 252 278 248 
3 310 249 248 
3 249 311 309 
3 310 311 249 
3 250 265 251 
3 251 312 255 
3 265 312 251 
3 253 278 252 
3 253 279 278 
3 279 253 254 
3 279 254 313 
3 313 254 255 
3 255 314 313 
3 312 314 255 
3 256 308 257 
3 315 308 256 
3 311 315 256 
3 309 311 256 
3 261 258 316 
3 258 260 317 
3 317 316 258 
3 306 318 259 
3 318 319 259 
3 259 319 260 
3 260 320 317 
3 319 321 260 
3 260 321 320 
3 261 316 262 
3 316 322 262 
3 322 323 262 
3 324 263 262 
3 262 323 325 
3 325 324 262 
3 263 326 264 
3 326 263 324 
3 264 312 265 
3 327 312 264 
3 264 326 327 
3 280 266 328 
3 269 328 266 
3 267 271 270 
3 329 269 268 
3 270 330 268 
3 314 268 330 
3 314 329 268 
3 329 328 269 
3 270 271 331 
3 270 331 332 
3 332 330 270 
3 271 272 277 
3 277 331 271 
3 274 273 307 
3 333 275 274 
3 307 333 274 
3 275 333 278 
3 276 331 277 
3 276 279 313 
3 313 331 276 
3 278 333 334 
3 334 310 278 
3 280 335 281 
3 336 335 280 
3 328 336 280 
3 281 335 283 
3 283 284 282 
3 305 283 337 
3 304 284 283 
3 305 304 283 
3 335 337 283 
3 299 286 285 
3 338 286 299 
3 339 340 286 
3 339 286 338 
3 340 287 286 
3 303 287 340 
3 297 288 341 
3 341 288 342 
3 289 342 288 
3 343 342 289 
3 344 289 290 
3 289 345 343 
3 344 345 289 
3 346 290 347 
3 348 290 346 
3 344 290 348 
3 290 291 347 
3 347 291 349 
3 349 291 292 
3 350 292 351 
3 292 293 351 
3 292 350 349 
3 351 293 352 
3 353 293 294 
3 352 293 353 
3 354 294 300 
3 353 294 354 
3 297 355 295 
3 295 355 356 
3 295 356 296 
3 296 357 358 
3 358 298 296 
3 296 356 357 
3 341 355 297 
3 299 298 358 
3 299 359 360 
3 358 359 299 
3 360 338 299 
3 354 300 361 
3 300 302 362 
3 361 300 362 
3 303 362 302 
3 303 340 362 
3 337 363 305 
3 363 306 305 
3 363 318 306 
3 364 365 307 
3 365 333 307 
3 308 364 307 
3 315 366 308 
3 308 366 364 
3 334 311 310 
3 367 311 334 
3 311 368 315 
3 311 367 368 
3 327 314 312 
3 313 330 332 
3 314 330 313 
3 332 331 313 
3 314 369 329 
3 369 314 327 
3 315 370 366 
3 368 370 315 
3 316 371 322 
3 317 371 316 
3 320 371 317 
3 337 318 363 
3 372 318 337 
3 319 318 372 
3 319 373 321 
3 372 373 319 
3 320 374 375 
3 321 374 320 
3 375 371 320 
3 321 373 374 
3 322 376 377 
3 371 376 322 
3 377 323 322 
3 323 378 325 
3 379 378 323 
3 379 323 377 
3 380 324 381 
3 326 324 380 
3 324 325 381 
3 381 325 382 
3 383 382 325 
3 325 378 384 
3 384 383 325 
3 327 326 369 
3 369 326 380 
3 385 336 328 
3 328 329 385 
3 385 329 386 
3 369 386 329 
3 387 333 365 
3 334 388 389 
3 389 367 334 
3 335 336 372 
3 337 335 372 
3 390 372 336 
3 385 390 336 
3 391 338 360 
3 339 338 391 
3 392 340 339 
3 393 339 391 
3 394 339 393 
3 394 392 339 
3 362 340 392 
3 341 395 396 
3 397 395 341 
3 341 396 355 
3 341 398 397 
3 398 341 342 
3 342 399 398 
3 399 342 343 
3 343 400 399 
3 345 400 343 
3 348 345 344 
3 401 400 345 
3 401 345 348 
3 346 347 402 
3 348 346 402 
3 347 403 402 
3 347 404 403 
3 347 349 404 
3 405 406 348 
3 348 402 405 
3 406 401 348 
3 404 349 350 
3 407 350 351 
3 404 350 407 
3 407 351 408 
3 408 351 409 
3 410 351 352 
3 409 351 410 
3 411 352 353 
3 410 352 411 
3 412 353 354 
3 411 353 412 
3 413 354 361 
3 412 354 413 
3 355 396 414 
3 355 414 356 
3 356 414 415 
3 357 356 415 
3 358 357 416 
3 357 415 417 
3 418 357 417 
3 416 357 418 
3 358 416 359 
3 360 359 391 
3 418 393 359 
3 418 359 416 
3 391 359 393 
3 419 361 420 
3 413 361 419 
3 362 420 361 
3 362 421 422 
3 392 421 362 
3 420 362 422 
3 365 364 423 
3 423 364 366 
3 423 387 365 
3 366 424 425 
3 366 425 426 
3 366 426 423 
3 366 370 424 
3 367 389 427 
3 367 427 368 
3 428 370 368 
3 368 427 429 
3 429 428 368 
3 369 380 386 
3 430 370 428 
3 424 370 430 
3 375 376 371 
3 373 372 390 
3 390 431 373 
3 374 373 431 
3 374 432 375 
3 374 431 433 
3 434 374 433 
3 432 374 434 
3 375 432 435 
3 435 376 375 
3 436 377 376 
3 376 437 436 
3 435 438 376 
3 376 438 437 
3 377 439 440 
3 440 379 377 
3 436 439 377 
3 384 378 441 
3 378 442 441 
3 379 442 378 
3 440 443 379 
3 443 442 379 
3 380 382 385 
3 385 386 380 
3 381 382 380 
3 385 382 444 
3 382 383 444 
3 383 431 444 
3 384 431 383 
3 433 431 384 
3 384 434 433 
3 441 434 384 
3 444 390 385 
3 445 387 446 
3 387 445 388 
3 423 446 387 
3 447 389 388 
3 388 448 447 
3 445 448 388 
3 389 449 450 
3 450 427 389 
3 449 389 447 
3 444 431 390 
3 421 392 394 
3 451 393 418 
3 451 394 393 
3 452 394 451 
3 453 394 452 
3 454 394 453 
3 454 421 394 
3 395 455 396 
3 395 456 457 
3 455 395 457 
3 395 397 456 
3 396 455 414 
3 398 458 397 
3 459 458 398 
3 399 459 398 
3 460 459 399 
3 399 400 460 
3 400 401 460 
3 460 401 406 
3 402 461 405 
3 461 402 462 
3 462 402 403 
3 403 463 462 
3 404 463 403 
3 407 463 404 
3 405 460 406 
3 461 459 405 
3 459 460 405 
3 463 407 408 
3 408 464 465 
3 408 466 464 
3 409 466 408 
3 463 408 462 
3 462 408 465 
3 409 467 466 
3 410 467 409 
3 410 468 467 
3 411 468 410 
3 411 469 468 
3 412 469 411 
3 469 412 470 
3 470 412 413 
3 471 413 419 
3 470 413 471 
3 414 455 472 
3 414 472 415 
3 415 472 473 
3 415 473 474 
3 417 415 474 
3 473 475 417 
3 417 474 473 
3 417 475 418 
3 418 475 476 
3 476 451 418 
3 420 477 419 
3 419 478 471 
3 477 478 419 
3 477 420 422 
3 422 421 479 
3 479 421 454 
3 479 477 422 
3 423 426 446 
3 424 480 425 
3 480 424 430 
3 481 425 480 
3 482 426 425 
3 481 482 425 
3 483 426 482 
3 426 483 446 
3 450 484 427 
3 427 484 429 
3 428 485 430 
3 486 485 428 
3 486 428 429 
3 429 484 486 
3 480 430 487 
3 485 487 430 
3 432 438 435 
3 488 432 434 
3 489 432 488 
3 489 490 432 
3 432 490 438 
3 441 488 434 
3 439 436 491 
3 436 437 492 
3 493 436 492 
3 491 436 493 
3 438 490 437 
3 490 494 437 
3 437 494 495 
3 437 495 496 
3 492 437 496 
3 440 439 497 
3 439 491 497 
3 443 440 498 
3 440 497 498 
3 499 488 441 
3 441 442 499 
3 442 498 500 
3 442 500 501 
3 442 501 499 
3 443 498 442 
3 502 445 446 
3 448 445 502 
3 502 446 503 
3 483 503 446 
3 448 449 447 
3 502 449 448 
3 449 504 450 
3 504 449 502 
3 450 504 505 
3 450 505 506 
3 484 450 506 
3 452 451 507 
3 451 476 507 
3 452 507 453 
3 508 453 509 
3 453 507 509 
3 453 479 454 
3 508 479 453 
3 510 511 455 
3 510 455 457 
3 455 511 472 
3 512 457 456 
3 512 456 513 
3 456 514 515 
3 456 458 514 
3 513 456 515 
3 510 457 512 
3 458 516 514 
3 461 516 458 
3 458 459 461 
3 516 461 462 
3 516 462 517 
3 462 465 517 
3 465 464 518 
3 519 518 464 
3 520 464 466 
3 519 464 520 
3 465 518 517 
3 466 467 520 
3 520 467 521 
3 467 468 521 
3 521 468 522 
3 468 469 522 
3 522 469 523 
3 523 469 470 
3 470 524 523 
3 470 525 524 
3 471 525 470 
3 471 478 525 
3 511 526 472 
3 472 526 527 
3 472 527 473 
3 473 527 475 
3 528 475 527 
3 476 475 528 
3 528 529 476 
3 530 476 529 
3 530 531 476 
3 507 476 531 
3 508 478 477 
3 477 479 508 
3 532 533 478 
3 478 533 525 
3 532 478 508 
3 487 481 480 
3 534 482 481 
3 481 505 534 
3 535 505 481 
3 487 535 481 
3 534 536 482 
3 482 536 503 
3 482 503 483 
3 484 506 486 
3 506 535 485 
3 486 506 485 
3 485 535 487 
3 489 488 537 
3 488 538 537 
3 488 501 538 
3 499 501 488 
3 489 537 490 
3 490 537 494 
3 497 491 539 
3 540 491 493 
3 539 491 540 
3 541 492 496 
3 541 493 492 
3 542 493 543 
3 543 493 541 
3 542 540 493 
3 494 544 545 
3 537 544 494 
3 494 545 495 
3 495 545 546 
3 495 546 547 
3 496 495 547 
3 548 496 547 
3 548 541 496 
3 498 497 549 
3 497 550 549 
3 550 497 539 
3 498 551 500 
3 498 549 551 
3 552 501 500 
3 552 500 553 
3 500 554 553 
3 551 554 500 
3 538 501 552 
3 502 503 536 
3 536 504 502 
3 505 504 534 
3 534 504 536 
3 506 505 535 
3 507 531 555 
3 509 507 555 
3 509 532 508 
3 509 555 556 
3 509 556 532 
3 557 511 510 
3 512 558 510 
3 557 510 559 
3 560 510 561 
3 560 559 510 
3 510 558 561 
3 557 526 511 
3 513 562 512 
3 512 562 558 
3 563 513 515 
3 564 562 513 
3 565 513 563 
3 565 564 513 
3 515 514 566 
3 566 514 516 
3 563 515 566 
3 567 566 516 
3 516 517 567 
3 517 518 568 
3 568 567 517 
3 568 518 519 
3 569 568 519 
3 569 519 570 
3 570 519 520 
3 570 520 571 
3 520 521 571 
3 521 572 571 
3 521 573 572 
3 522 573 521 
3 522 574 573 
3 523 574 522 
3 523 524 574 
3 574 524 575 
3 576 524 525 
3 575 524 576 
3 525 533 577 
3 578 525 577 
3 576 525 578 
3 557 579 526 
3 526 579 527 
3 527 579 528 
3 528 580 529 
3 579 580 528 
3 529 581 530 
3 580 581 529 
3 582 531 530 
3 530 583 582 
3 581 583 530 
3 582 584 531 
3 555 531 584 
3 533 532 585 
3 532 556 585 
3 585 586 533 
3 577 533 586 
3 537 587 544 
3 588 587 537 
3 537 538 588 
3 589 590 538 
3 588 538 590 
3 589 538 552 
3 591 539 540 
3 539 591 550 
3 591 540 542 
3 548 543 541 
3 592 542 543 
3 591 542 592 
3 592 543 593 
3 543 594 595 
3 543 595 593 
3 543 596 594 
3 548 596 543 
3 544 597 545 
3 544 598 597 
3 587 598 544 
3 545 597 599 
3 545 599 546 
3 546 599 600 
3 600 601 546 
3 547 546 601 
3 602 548 547 
3 547 603 604 
3 604 602 547 
3 603 547 601 
3 548 602 596 
3 551 549 605 
3 605 549 606 
3 549 550 606 
3 606 550 607 
3 607 550 591 
3 551 608 554 
3 605 608 551 
3 552 553 589 
3 553 609 589 
3 610 609 553 
3 611 610 553 
3 553 554 611 
3 608 611 554 
3 555 584 612 
3 556 555 612 
3 556 612 613 
3 613 614 556 
3 556 614 615 
3 556 615 585 
3 616 579 557 
3 616 557 559 
3 558 617 561 
3 558 562 617 
3 618 559 619 
3 619 559 560 
3 618 616 559 
3 561 620 560 
3 620 621 560 
3 560 622 619 
3 622 560 621 
3 620 561 617 
3 562 564 623 
3 562 623 624 
3 624 617 562 
3 563 566 625 
3 563 625 565 
3 626 564 565 
3 564 626 623 
3 627 565 625 
3 628 565 627 
3 565 629 626 
3 628 630 565 
3 565 630 629 
3 627 566 631 
3 625 566 627 
3 631 566 567 
3 632 631 567 
3 568 632 567 
3 632 568 633 
3 633 568 569 
3 569 634 635 
3 634 569 570 
3 633 569 635 
3 636 637 570 
3 638 570 639 
3 637 639 570 
3 571 636 570 
3 634 570 640 
3 640 570 638 
3 571 572 636 
3 637 572 573 
3 636 572 637 
3 637 573 641 
3 641 573 574 
3 642 574 575 
3 641 574 642 
3 643 575 576 
3 642 575 643 
3 644 576 578 
3 643 576 644 
3 645 577 586 
3 578 577 645 
3 645 644 578 
3 616 580 579 
3 618 580 616 
3 618 581 580 
3 646 581 618 
3 646 583 581 
3 647 584 582 
3 647 582 583 
3 648 583 646 
3 647 583 648 
3 647 649 584 
3 612 584 649 
3 585 615 586 
3 650 645 586 
3 586 615 650 
3 651 587 652 
3 598 587 651 
3 587 588 652 
3 652 588 590 
3 590 589 653 
3 589 654 653 
3 609 654 589 
3 590 653 652 
3 592 655 591 
3 655 607 591 
3 592 656 655 
3 593 657 592 
3 658 656 592 
3 592 657 658 
3 593 595 659 
3 660 593 659 
3 657 593 660 
3 595 594 661 
3 594 596 662 
3 661 594 662 
3 659 595 661 
3 596 602 663 
3 662 596 663 
3 599 597 664 
3 597 598 665 
3 597 665 664 
3 665 598 651 
3 666 599 664 
3 599 666 600 
3 667 668 600 
3 666 669 600 
3 600 669 667 
3 601 600 668 
3 601 668 603 
3 602 604 670 
3 663 602 670 
3 603 671 604 
3 672 673 603 
3 668 672 603 
3 671 603 673 
3 670 604 671 
3 606 608 605 
3 608 606 674 
3 675 674 606 
3 606 607 675 
3 676 675 607 
3 677 607 655 
3 678 676 607 
3 607 677 678 
3 679 611 608 
3 674 679 608 
3 609 680 654 
3 681 680 609 
3 610 681 609 
3 682 681 610 
3 683 682 610 
3 683 610 611 
3 679 683 611 
3 649 684 612 
3 613 612 684 
3 685 613 686 
3 684 686 613 
3 685 614 613 
3 650 614 685 
3 614 650 615 
3 620 617 687 
3 687 617 688 
3 617 624 688 
3 619 646 618 
3 689 619 622 
3 690 648 619 
3 619 648 646 
3 691 690 619 
3 689 691 619 
3 692 621 620 
3 620 687 692 
3 622 621 693 
3 694 621 692 
3 695 693 621 
3 621 694 695 
3 696 622 697 
3 693 698 622 
3 622 696 689 
3 699 622 698 
3 700 697 622 
3 622 699 700 
3 623 626 701 
3 701 702 623 
3 703 624 623 
3 703 623 702 
3 688 624 703 
3 626 704 701 
3 704 626 629 
3 705 627 706 
3 627 631 706 
3 627 705 628 
3 705 630 628 
3 629 630 704 
3 707 630 705 
3 707 708 630 
3 630 708 709 
3 630 709 704 
3 706 631 632 
3 706 632 710 
3 635 632 633 
3 635 710 632 
3 634 711 635 
3 640 711 634 
3 635 712 710 
3 635 711 713 
3 712 635 713 
3 639 637 641 
3 638 639 714 
3 714 715 638 
3 713 711 638 
3 711 640 638 
3 713 638 715 
3 716 714 639 
3 639 641 716 
3 717 641 642 
3 716 641 717 
3 718 642 643 
3 717 642 718 
3 719 643 644 
3 718 643 719 
3 720 644 645 
3 719 644 720 
3 721 720 645 
3 645 722 721 
3 723 645 650 
3 722 645 723 
3 724 649 647 
3 690 724 647 
3 647 648 690 
3 725 649 724 
3 725 726 649 
3 726 684 649 
3 727 723 650 
3 685 727 650 
3 652 728 651 
3 665 651 729 
3 651 728 729 
3 652 653 728 
3 653 730 728 
3 654 730 653 
3 654 731 730 
3 680 731 654 
3 732 655 656 
3 732 677 655 
3 733 656 734 
3 733 732 656 
3 656 658 735 
3 735 736 656 
3 736 734 656 
3 737 658 657 
3 657 738 737 
3 738 657 660 
3 737 739 658 
3 740 658 739 
3 741 658 740 
3 658 741 735 
3 659 661 742 
3 743 659 742 
3 660 659 743 
3 738 660 743 
3 661 662 744 
3 742 661 744 
3 662 663 745 
3 744 662 745 
3 663 670 746 
3 745 663 746 
3 664 747 748 
3 664 749 747 
3 666 664 748 
3 750 749 664 
3 664 751 750 
3 665 751 664 
3 751 665 752 
3 753 752 665 
3 753 665 754 
3 729 754 665 
3 748 755 666 
3 666 755 669 
3 667 756 668 
3 667 669 757 
3 667 757 756 
3 668 756 758 
3 759 760 668 
3 668 758 759 
3 760 672 668 
3 669 761 757 
3 755 761 669 
3 670 671 762 
3 746 670 762 
3 763 671 673 
3 762 671 763 
3 673 672 764 
3 672 760 764 
3 673 764 765 
3 766 763 673 
3 673 765 766 
3 675 679 674 
3 679 675 767 
3 768 767 675 
3 676 769 675 
3 769 768 675 
3 770 771 676 
3 676 678 772 
3 772 770 676 
3 771 769 676 
3 677 773 774 
3 775 677 732 
3 774 776 677 
3 773 677 775 
3 677 776 678 
3 777 772 678 
3 776 777 678 
3 778 683 679 
3 767 778 679 
3 779 731 680 
3 780 680 681 
3 779 680 780 
3 781 681 682 
3 780 681 781 
3 782 682 783 
3 781 682 782 
3 783 682 683 
3 778 783 683 
3 686 684 784 
3 784 684 726 
3 685 686 785 
3 685 785 786 
3 727 685 786 
3 686 784 785 
3 692 687 688 
3 688 787 692 
3 787 688 788 
3 703 788 688 
3 789 790 689 
3 790 691 689 
3 696 789 689 
3 690 791 725 
3 792 791 690 
3 690 725 724 
3 792 690 691 
3 792 691 793 
3 793 691 790 
3 692 794 694 
3 692 787 794 
3 698 693 695 
3 694 795 695 
3 694 796 797 
3 794 796 694 
3 694 797 795 
3 699 698 695 
3 695 795 699 
3 696 697 798 
3 789 696 799 
3 799 696 798 
3 798 697 700 
3 699 800 801 
3 802 699 795 
3 801 700 699 
3 800 699 802 
3 801 798 700 
3 803 701 704 
3 804 701 805 
3 701 804 702 
3 805 701 803 
3 703 702 804 
3 804 806 703 
3 806 807 703 
3 807 788 703 
3 709 803 704 
3 706 808 705 
3 808 707 705 
3 706 710 808 
3 712 713 707 
3 708 707 713 
3 707 808 712 
3 809 803 708 
3 708 713 809 
3 803 709 708 
3 808 710 712 
3 810 713 715 
3 809 713 810 
3 811 714 812 
3 714 717 812 
3 716 717 714 
3 714 811 715 
3 715 811 813 
3 814 715 815 
3 815 715 813 
3 715 814 810 
3 717 718 812 
3 719 812 718 
3 812 719 816 
3 720 721 719 
3 721 816 719 
3 817 721 722 
3 816 721 817 
3 723 818 722 
3 818 817 722 
3 723 819 820 
3 820 818 723 
3 819 723 821 
3 821 723 727 
3 725 791 726 
3 726 791 784 
3 786 821 727 
3 728 822 729 
3 730 822 728 
3 754 729 822 
3 731 822 730 
3 823 824 731 
3 824 822 731 
3 731 825 823 
3 825 731 779 
3 826 827 732 
3 732 828 826 
3 732 827 775 
3 828 732 733 
3 734 829 733 
3 830 828 733 
3 733 829 831 
3 831 830 733 
3 829 734 832 
3 832 734 736 
3 833 735 741 
3 736 735 833 
3 736 833 834 
3 834 832 736 
3 739 737 738 
3 738 835 739 
3 743 835 738 
3 836 739 835 
3 837 739 836 
3 740 739 837 
3 838 741 740 
3 837 838 740 
3 833 741 838 
3 742 839 840 
3 840 743 742 
3 839 742 744 
3 835 743 840 
3 839 744 745 
3 745 841 839 
3 841 745 746 
3 842 746 762 
3 841 746 842 
3 747 843 748 
3 749 844 747 
3 844 843 747 
3 845 846 748 
3 755 748 847 
3 748 846 848 
3 848 847 748 
3 843 845 748 
3 750 849 749 
3 849 844 749 
3 750 850 851 
3 852 850 750 
3 851 849 750 
3 852 750 853 
3 854 853 750 
3 750 751 854 
3 855 854 751 
3 752 855 751 
3 856 855 752 
3 753 856 752 
3 857 856 753 
3 857 753 823 
3 823 753 754 
3 823 754 824 
3 754 822 824 
3 755 847 761 
3 756 757 858 
3 858 859 756 
3 756 859 758 
3 757 761 860 
3 860 858 757 
3 759 758 859 
3 759 861 760 
3 859 862 759 
3 862 863 759 
3 863 861 759 
3 764 760 861 
3 761 847 864 
3 864 860 761 
3 865 762 763 
3 842 762 865 
3 865 763 766 
3 764 861 866 
3 765 764 866 
3 866 867 765 
3 867 868 765 
3 765 868 865 
3 765 865 766 
3 767 869 778 
3 870 869 767 
3 768 870 767 
3 871 870 768 
3 769 871 768 
3 872 871 769 
3 771 872 769 
3 770 873 771 
3 772 874 770 
3 873 770 874 
3 873 872 771 
3 875 874 772 
3 777 875 772 
3 876 774 773 
3 877 773 775 
3 878 876 773 
3 773 877 878 
3 879 880 774 
3 880 881 774 
3 774 876 879 
3 882 776 774 
3 774 881 882 
3 827 877 775 
3 776 882 883 
3 883 884 776 
3 884 777 776 
3 885 875 777 
3 884 885 777 
3 869 783 778 
3 779 886 825 
3 887 886 779 
3 780 887 779 
3 888 887 780 
3 781 888 780 
3 889 888 781 
3 782 889 781 
3 782 783 890 
3 891 889 782 
3 890 891 782 
3 890 783 869 
3 892 785 784 
3 784 791 792 
3 892 784 792 
3 893 786 785 
3 893 785 892 
3 894 786 893 
3 894 821 786 
3 895 794 787 
3 895 787 788 
3 788 807 895 
3 896 790 789 
3 897 896 789 
3 898 899 789 
3 789 899 897 
3 898 789 799 
3 793 790 896 
3 892 792 793 
3 900 793 901 
3 900 892 793 
3 901 793 896 
3 794 895 796 
3 795 797 802 
3 797 796 902 
3 796 895 903 
3 902 796 903 
3 797 904 802 
3 902 905 797 
3 905 904 797 
3 799 798 801 
3 906 898 799 
3 907 906 799 
3 799 801 907 
3 800 908 801 
3 800 909 908 
3 802 909 800 
3 801 908 907 
3 802 910 911 
3 910 802 904 
3 911 909 802 
3 912 803 809 
3 805 803 912 
3 805 913 804 
3 913 806 804 
3 914 913 805 
3 914 805 912 
3 915 807 806 
3 913 915 806 
3 916 807 917 
3 917 807 915 
3 916 895 807 
3 918 809 810 
3 809 918 912 
3 810 919 918 
3 814 919 810 
3 811 812 816 
3 816 920 811 
3 921 813 811 
3 811 920 921 
3 815 813 922 
3 922 813 921 
3 814 815 923 
3 923 924 814 
3 919 814 925 
3 926 925 814 
3 814 924 926 
3 922 927 815 
3 815 927 923 
3 816 817 920 
3 817 928 920 
3 818 928 817 
3 928 818 820 
3 820 819 929 
3 930 819 821 
3 930 931 819 
3 929 819 931 
3 932 820 929 
3 820 932 928 
3 933 821 894 
3 930 821 933 
3 934 857 823 
3 934 823 825 
3 934 825 886 
3 826 935 827 
3 936 826 937 
3 935 826 936 
3 937 826 828 
3 938 827 935 
3 877 827 938 
3 937 828 830 
3 831 829 832 
3 939 937 830 
3 940 830 941 
3 941 830 831 
3 830 940 942 
3 942 939 830 
3 831 832 941 
3 941 832 834 
3 833 943 834 
3 943 833 838 
3 944 834 943 
3 945 834 944 
3 941 834 945 
3 946 836 835 
3 840 946 835 
3 947 836 946 
3 947 837 836 
3 837 948 949 
3 949 950 837 
3 948 837 947 
3 950 838 837 
3 943 838 950 
3 839 951 840 
3 841 952 839 
3 839 952 951 
3 951 946 840 
3 841 953 952 
3 842 953 841 
3 865 954 842 
3 954 953 842 
3 955 845 843 
3 843 956 955 
3 844 956 843 
3 844 957 956 
3 849 957 844 
3 846 845 958 
3 959 845 955 
3 959 958 845 
3 846 960 848 
3 846 958 960 
3 848 864 847 
3 848 961 962 
3 960 961 848 
3 962 864 848 
3 851 957 849 
3 963 851 850 
3 963 850 964 
3 850 965 964 
3 965 850 852 
3 957 851 966 
3 966 851 963 
3 965 852 967 
3 967 852 853 
3 854 968 853 
3 968 967 853 
3 854 969 968 
3 969 854 855 
3 969 855 856 
3 970 856 971 
3 970 969 856 
3 971 856 857 
3 971 857 934 
3 972 858 860 
3 972 973 858 
3 973 859 858 
3 973 974 859 
3 974 975 859 
3 859 975 862 
3 860 976 972 
3 977 860 864 
3 976 860 977 
3 861 863 978 
3 978 866 861 
3 862 975 863 
3 863 979 978 
3 975 979 863 
3 980 864 962 
3 980 977 864 
3 868 954 865 
3 978 981 866 
3 867 866 981 
3 981 982 867 
3 982 868 867 
3 983 954 868 
3 868 982 983 
3 984 869 870 
3 890 869 984 
3 984 870 871 
3 871 985 984 
3 985 871 872 
3 986 872 873 
3 985 872 986 
3 874 986 873 
3 987 988 874 
3 874 988 986 
3 875 987 874 
3 987 875 989 
3 989 875 885 
3 876 990 879 
3 878 991 876 
3 876 992 990 
3 991 992 876 
3 878 877 993 
3 993 877 938 
3 994 878 995 
3 994 991 878 
3 878 993 995 
3 996 880 879 
3 879 997 996 
3 879 998 997 
3 990 998 879 
3 996 999 880 
3 880 999 881 
3 881 1000 882 
3 999 1000 881 
3 1000 883 882 
3 1001 884 883 
3 883 1002 1001 
3 1000 1002 883 
3 1001 885 884 
3 989 885 1001 
3 886 1003 1004 
3 886 887 1003 
3 1005 886 1004 
3 934 886 1005 
3 1003 887 888 
3 1003 888 889 
3 1003 889 891 
3 1006 891 890 
3 984 1006 890 
3 891 1006 1003 
3 892 900 893 
3 1007 893 900 
3 1007 894 893 
3 894 1007 1008 
3 894 1008 933 
3 903 895 916 
3 1009 896 897 
3 896 1009 901 
3 897 1010 1009 
3 897 899 1010 
3 898 1011 899 
3 1011 898 906 
3 1012 1010 899 
3 899 1011 1013 
3 1013 1012 899 
3 901 1007 900 
3 901 1014 1015 
3 1008 1007 901 
3 1014 901 1009 
3 1015 1008 901 
3 905 902 1016 
3 902 903 916 
3 1017 1016 902 
3 902 916 1017 
3 904 905 1018 
3 910 904 1018 
3 905 1016 1019 
3 905 1019 1018 
3 906 1020 1011 
3 1020 906 1021 
3 906 907 1021 
3 1021 907 1022 
3 907 908 1023 
3 1022 907 1023 
3 1023 908 909 
3 1023 909 1022 
3 909 1024 1022 
3 1024 909 911 
3 911 910 1025 
3 1018 1025 910 
3 911 1026 1024 
3 911 1025 1027 
3 911 1028 1026 
3 1028 911 1027 
3 912 918 1029 
3 1030 914 912 
3 912 1029 1030 
3 917 915 913 
3 913 1031 917 
3 914 1031 913 
3 1031 914 1032 
3 1032 914 1030 
3 1033 916 917 
3 916 1033 1017 
3 1031 1033 917 
3 1034 918 1035 
3 918 919 1035 
3 918 1036 1029 
3 1036 918 1034 
3 919 925 1035 
3 920 932 921 
3 932 920 928 
3 921 932 929 
3 1037 921 1038 
3 929 1039 921 
3 921 1039 1040 
3 1037 922 921 
3 1038 921 1040 
3 1037 927 922 
3 923 927 1041 
3 924 923 1042 
3 1042 923 1041 
3 926 924 1034 
3 924 1042 1034 
3 1035 925 926 
3 1034 1035 926 
3 927 1043 1041 
3 927 1037 1043 
3 929 931 1044 
3 1045 929 1044 
3 1039 929 1045 
3 931 930 1046 
3 930 933 1046 
3 1044 931 1046 
3 1046 933 1008 
3 1005 971 934 
3 936 938 935 
3 938 936 1047 
3 936 937 1048 
3 1047 936 1048 
3 1048 937 939 
3 1047 993 938 
3 942 1048 939 
3 1049 940 941 
3 1049 1050 940 
3 942 940 1050 
3 1051 941 945 
3 1049 941 1051 
3 942 1052 1053 
3 1054 1052 942 
3 942 1047 1048 
3 1055 942 1053 
3 942 1050 1054 
3 1056 1047 942 
3 942 1055 1056 
3 949 944 943 
3 949 943 950 
3 1057 944 949 
3 1057 945 944 
3 1058 945 1057 
3 1051 945 1058 
3 1059 946 951 
3 1059 947 946 
3 948 947 1060 
3 1060 947 1059 
3 1061 949 948 
3 1062 948 1060 
3 1061 948 1062 
3 1061 1057 949 
3 951 1063 1059 
3 952 1063 951 
3 952 1064 1063 
3 953 1064 952 
3 983 953 954 
3 953 983 1064 
3 1065 955 956 
3 1066 955 1065 
3 959 955 1066 
3 1067 956 957 
3 1065 956 1067 
3 966 1067 957 
3 960 958 1068 
3 958 1069 1070 
3 958 959 1069 
3 958 1070 1068 
3 1066 1071 959 
3 1071 1069 959 
3 961 960 1068 
3 1072 962 961 
3 1073 1074 961 
3 961 1068 1073 
3 1072 961 1074 
3 980 962 1072 
3 966 963 1075 
3 964 1075 963 
3 964 1076 1077 
3 964 1078 1076 
3 1077 1075 964 
3 1078 964 965 
3 1078 965 1079 
3 1079 965 967 
3 966 1080 1067 
3 1075 1080 966 
3 1079 967 968 
3 968 1081 1079 
3 970 1082 968 
3 968 1082 1081 
3 968 969 970 
3 971 1082 970 
3 971 1005 1083 
3 1083 1082 971 
3 1084 972 976 
3 1085 972 1084 
3 972 1085 973 
3 1086 973 1087 
3 1087 973 1085 
3 1086 974 973 
3 1088 974 1086 
3 1088 979 974 
3 974 979 975 
3 1089 1084 976 
3 1090 976 977 
3 976 1091 1089 
3 976 1090 1091 
3 977 1072 1090 
3 1072 977 980 
3 978 979 981 
3 1092 981 979 
3 979 1088 1092 
3 981 1092 1093 
3 981 1093 982 
3 982 1094 983 
3 1093 1095 982 
3 982 1095 1096 
3 1094 982 1096 
3 1064 983 1097 
3 1098 1097 983 
3 983 1094 1098 
3 1099 1006 984 
3 1099 984 985 
3 1100 1101 985 
3 986 1100 985 
3 985 1101 1099 
3 988 1100 986 
3 1102 988 987 
3 989 1103 987 
3 1103 1102 987 
3 1104 1100 988 
3 1104 988 1102 
3 1105 1103 989 
3 989 1001 1105 
3 998 990 1106 
3 1106 990 992 
3 1107 991 994 
3 991 1107 992 
3 1108 1106 992 
3 1109 992 1107 
3 1108 992 1109 
3 995 993 1110 
3 993 1047 1110 
3 995 1111 994 
3 1111 1112 994 
3 1113 1107 994 
3 1112 1114 994 
3 994 1114 1113 
3 1115 1111 995 
3 1110 1115 995 
3 1116 1117 996 
3 997 1116 996 
3 1118 999 996 
3 996 1117 1118 
3 997 1119 1120 
3 997 998 1119 
3 1120 1116 997 
3 1121 1119 998 
3 1106 1121 998 
3 999 1118 1000 
3 1118 1002 1000 
3 1105 1001 1002 
3 1002 1122 1105 
3 1122 1002 1118 
3 1004 1003 1123 
3 1124 1125 1003 
3 1003 1126 1124 
3 1127 1123 1003 
3 1003 1125 1127 
3 1128 1126 1003 
3 1003 1006 1128 
3 1004 1129 1130 
3 1131 1005 1004 
3 1004 1130 1132 
3 1132 1131 1004 
3 1123 1129 1004 
3 1005 1131 1083 
3 1006 1099 1128 
3 1133 1046 1008 
3 1133 1008 1015 
3 1014 1009 1010 
3 1010 1012 1014 
3 1013 1011 1020 
3 1014 1012 1134 
3 1013 1135 1012 
3 1012 1135 1134 
3 1020 1136 1013 
3 1136 1135 1013 
3 1015 1014 1137 
3 1014 1134 1138 
3 1138 1137 1014 
3 1015 1137 1139 
3 1139 1133 1015 
3 1016 1017 1019 
3 1140 1019 1017 
3 1140 1017 1033 
3 1018 1141 1025 
3 1142 1018 1019 
3 1018 1142 1143 
3 1018 1143 1144 
3 1144 1141 1018 
3 1145 1142 1019 
3 1019 1140 1032 
3 1032 1145 1019 
3 1020 1146 1136 
3 1020 1147 1146 
3 1147 1020 1021 
3 1147 1021 1148 
3 1148 1021 1022 
3 1024 1149 1022 
3 1149 1148 1022 
3 1150 1024 1151 
3 1024 1150 1149 
3 1026 1151 1024 
3 1027 1025 1141 
3 1152 1151 1026 
3 1153 1152 1026 
3 1154 1026 1028 
3 1026 1154 1155 
3 1155 1153 1026 
3 1156 1027 1157 
3 1141 1157 1027 
3 1156 1028 1027 
3 1154 1028 1156 
3 1158 1159 1029 
3 1029 1036 1158 
3 1029 1160 1030 
3 1029 1159 1160 
3 1160 1032 1030 
3 1031 1140 1033 
3 1140 1031 1032 
3 1145 1032 1160 
3 1034 1042 1161 
3 1034 1162 1036 
3 1162 1034 1161 
3 1163 1036 1162 
3 1158 1036 1163 
3 1164 1037 1038 
3 1165 1043 1037 
3 1037 1164 1165 
3 1038 1040 1166 
3 1167 1164 1038 
3 1038 1166 1167 
3 1040 1039 1045 
3 1045 1168 1040 
3 1169 1166 1040 
3 1168 1139 1040 
3 1040 1139 1169 
3 1041 1043 1170 
3 1041 1170 1171 
3 1161 1042 1041 
3 1041 1171 1161 
3 1172 1173 1043 
3 1043 1165 1172 
3 1043 1173 1170 
3 1044 1046 1045 
3 1045 1046 1168 
3 1046 1133 1168 
3 1110 1047 1056 
3 1051 1174 1049 
3 1049 1174 1175 
3 1049 1175 1050 
3 1054 1050 1175 
3 1058 1174 1051 
3 1176 1053 1052 
3 1176 1052 1177 
3 1178 1177 1052 
3 1052 1175 1178 
3 1175 1052 1054 
3 1179 1053 1176 
3 1179 1055 1053 
3 1180 1055 1179 
3 1055 1180 1181 
3 1181 1056 1055 
3 1110 1056 1181 
3 1182 1057 1061 
3 1058 1057 1182 
3 1182 1183 1058 
3 1058 1183 1184 
3 1184 1174 1058 
3 1059 1063 1185 
3 1186 1059 1187 
3 1060 1059 1186 
3 1185 1187 1059 
3 1060 1188 1062 
3 1188 1060 1186 
3 1189 1061 1190 
3 1188 1190 1061 
3 1182 1061 1189 
3 1061 1062 1188 
3 1191 1192 1063 
3 1063 1064 1191 
3 1192 1185 1063 
3 1193 1191 1064 
3 1097 1193 1064 
3 1194 1065 1195 
3 1067 1195 1065 
3 1066 1065 1196 
3 1196 1065 1194 
3 1071 1066 1196 
3 1067 1080 1195 
3 1197 1068 1070 
3 1068 1197 1073 
3 1070 1069 1198 
3 1198 1069 1071 
3 1199 1070 1200 
3 1197 1070 1199 
3 1198 1200 1070 
3 1071 1196 1201 
3 1202 1071 1201 
3 1198 1071 1202 
3 1072 1074 1203 
3 1203 1090 1072 
3 1073 1203 1074 
3 1073 1204 1203 
3 1204 1073 1197 
3 1075 1205 1080 
3 1205 1075 1077 
3 1076 1206 1077 
3 1206 1076 1207 
3 1208 1207 1076 
3 1208 1076 1078 
3 1209 1205 1077 
3 1077 1206 1209 
3 1210 1208 1078 
3 1078 1079 1210 
3 1081 1210 1079 
3 1195 1080 1211 
3 1080 1205 1212 
3 1080 1212 1211 
3 1213 1081 1214 
3 1082 1214 1081 
3 1081 1213 1210 
3 1083 1214 1082 
3 1083 1131 1214 
3 1087 1085 1084 
3 1215 1216 1084 
3 1217 1215 1084 
3 1217 1084 1089 
3 1084 1216 1087 
3 1218 1086 1087 
3 1086 1218 1088 
3 1087 1216 1215 
3 1219 1087 1215 
3 1087 1219 1218 
3 1220 1088 1218 
3 1088 1220 1092 
3 1091 1217 1089 
3 1090 1203 1221 
3 1090 1221 1091 
3 1222 1217 1091 
3 1091 1221 1222 
3 1220 1223 1092 
3 1095 1092 1223 
3 1095 1093 1092 
3 1094 1096 1224 
3 1094 1225 1098 
3 1225 1094 1224 
3 1226 1095 1223 
3 1096 1095 1226 
3 1224 1096 1226 
3 1227 1097 1098 
3 1227 1193 1097 
3 1098 1225 1227 
3 1099 1101 1228 
3 1228 1128 1099 
3 1228 1101 1100 
3 1229 1230 1100 
3 1100 1104 1229 
3 1100 1230 1228 
3 1229 1104 1102 
3 1102 1103 1229 
3 1103 1231 1229 
3 1103 1105 1231 
3 1117 1105 1122 
3 1105 1117 1232 
3 1232 1231 1105 
3 1121 1106 1233 
3 1233 1106 1108 
3 1109 1107 1113 
3 1234 1233 1108 
3 1235 1108 1109 
3 1234 1108 1235 
3 1236 1109 1113 
3 1235 1109 1236 
3 1181 1115 1110 
3 1237 1111 1115 
3 1238 1111 1237 
3 1111 1238 1112 
3 1114 1112 1238 
3 1239 1113 1114 
3 1236 1113 1239 
3 1238 1239 1114 
3 1240 1241 1115 
3 1115 1241 1237 
3 1181 1240 1115 
3 1242 1117 1116 
3 1116 1120 1242 
3 1117 1243 1232 
3 1117 1242 1243 
3 1122 1118 1117 
3 1119 1244 1120 
3 1121 1245 1119 
3 1244 1119 1245 
3 1120 1243 1242 
3 1246 1120 1244 
3 1120 1246 1247 
3 1247 1243 1120 
3 1245 1121 1248 
3 1249 1121 1233 
3 1248 1121 1249 
3 1250 1129 1123 
3 1250 1123 1251 
3 1127 1251 1123 
3 1125 1124 1252 
3 1253 1252 1124 
3 1126 1253 1124 
3 1254 1127 1125 
3 1255 1125 1252 
3 1254 1125 1255 
3 1253 1126 1230 
3 1230 1126 1128 
3 1251 1127 1254 
3 1230 1128 1228 
3 1129 1256 1130 
3 1129 1250 1257 
3 1256 1129 1257 
3 1130 1258 1132 
3 1256 1258 1130 
3 1132 1214 1131 
3 1132 1259 1214 
3 1260 1259 1132 
3 1132 1258 1260 
3 1133 1139 1168 
3 1134 1135 1138 
3 1261 1138 1135 
3 1261 1135 1136 
3 1136 1262 1261 
3 1146 1263 1136 
3 1136 1263 1262 
3 1139 1137 1264 
3 1265 1266 1137 
3 1265 1137 1138 
3 1266 1264 1137 
3 1138 1261 1265 
3 1139 1264 1169 
3 1157 1141 1144 
3 1267 1142 1145 
