NORM_ASCII
806 1608
   0.0350081   -0.3656994    0.0465218    0.9311312    0.0258460   -0.3637674
   0.0353044   -0.3685699    0.0467968    0.9129665    0.0649901   -0.4028256
   0.0313397   -0.3677429    0.0460556   -0.3649235   -0.1195340   -0.9233323
   0.0312700   -0.3671872    0.0460168   -0.3333998   -0.1449954   -0.9315690
   0.0320259   -0.3691604    0.0459538   -0.3168174   -0.0716916   -0.9457732
   0.0312030   -0.3684040    0.0462035   -0.4880338   -0.1518555   -0.8595132
   0.0330438   -0.3710085    0.0458282   -0.2109665   -0.0642004   -0.9753827
   0.0323228   -0.3707690    0.0459887   -0.3592039   -0.1024168   -0.9276224
   0.0339376   -0.3706021    0.0456905   -0.0054895   -0.0213747   -0.9997565
   0.0320570   -0.3697314    0.0460030   -0.3852224   -0.1055722   -0.9167651
   0.0346458   -0.3714753    0.0458001    0.3019784   -0.0261167   -0.9529569
   0.0349718   -0.3707911    0.0459598    0.6289133    0.0448493   -0.7761807
   0.0341591   -0.3710876    0.0457072    0.0568901   -0.0126482   -0.9983003
   0.0352707   -0.3707263    0.0462818    0.8462119    0.0530542   -0.5301987
   0.0307122   -0.3650898    0.0458657   -0.2178745   -0.1378962   -0.9661860
   0.0304396   -0.3640256    0.0457246   -0.1732710   -0.0927432   -0.9804978
   0.0318519   -0.3633953    0.0455615   -0.0920191   -0.0224802   -0.9955035
   0.0299878   -0.3636594    0.0458129   -0.2280624    0.0438098   -0.9726604
   0.0310544   -0.3666985    0.0459905   -0.3337070   -0.1749304   -0.9263040
   0.0349168   -0.3635423    0.0465040    0.9172158    0.0802496   -0.3902246
   0.0350923   -0.3653776    0.0466955    0.9488247    0.0391014   -0.3133734
   0.0350081   -0.3656994    0.0465218    0.9939251   -0.0007317   -0.1100562
   0.0350081   -0.3656994    0.0465218    0.9709407   -0.0142168   -0.2388977
   0.0345907   -0.3629060    0.0460635    0.8002879    0.1489412   -0.5808234
   0.0341268   -0.3630129    0.0456000    0.4300605    0.1802768   -0.8846176
   0.0319948   -0.3633318    0.0455528    0.1775618   -0.0051546   -0.9840961
   0.0334440   -0.3626490    0.0456218    0.0872894    0.3439765   -0.9349121
   0.0318377   -0.3628299    0.0455932   -0.0949335    0.1604954   -0.9824606
   0.0339283   -0.3620122    0.0459499    0.2664713    0.5168826   -0.8135265
   0.0331667   -0.3617730    0.0460180    0.1349535    0.5946973   -0.7925419
   0.0325877   -0.3619792    0.0458162   -0.0017724    0.4249120   -0.9052329
   0.0351630   -0.3662346    0.0467978    0.9295577    0.0389104   -0.3666175
   0.0351243   -0.3656904    0.0467254    0.9218993    0.0355393   -0.3857960
   0.0353306   -0.3674214    0.0471971    0.9823780    0.0949521   -0.1609892
   0.0353892   -0.3685167    0.0470268    0.9916114    0.0469857   -0.1204129
   0.0352694   -0.3668357    0.0470131    0.9910715    0.0719159   -0.1122736
   0.0307489   -0.3671359    0.0462593   -0.4579435   -0.1811179   -0.8703356
   0.0306190   -0.3684889    0.0466947   -0.6612798   -0.2356768   -0.7121555
   0.0307018   -0.3681787    0.0465348   -0.5656717   -0.2190715   -0.7949989
   0.0305670   -0.3694069    0.0470076   -0.7108083   -0.1886267   -0.6776220
   0.0315836   -0.3705840    0.0463836   -0.5320254   -0.1260916   -0.8372872
   0.0322463   -0.3719923    0.0461809   -0.4693947   -0.1323708   -0.8730101
   0.0335169   -0.3731145    0.0458394   -0.1733141   -0.0351006   -0.9842409
   0.0334693   -0.3713925    0.0457668   -0.0856452   -0.0412444   -0.9954716
   0.0326013   -0.3729838    0.0461372   -0.3727780   -0.0933649   -0.9232116
   0.0351492   -0.3724756    0.0461168    0.5675468    0.0264417   -0.8229164
   0.0344043   -0.3715702    0.0457562    0.2034734   -0.0189429   -0.9788972
   0.0352181   -0.3719589    0.0462660    0.8274917    0.0714378   -0.5569149
   0.0353347   -0.3718861    0.0464561    0.9361505    0.0158706   -0.3512411
   0.0354539   -0.3707413    0.0467517    0.9946582   -0.0016910   -0.1032099
   0.0304187   -0.3658363    0.0460962   -0.3981924   -0.2105411   -0.8928131
   0.0303166   -0.3640859    0.0457629   -0.3029048   -0.1643044   -0.9387506
   0.0295438   -0.3638905    0.0460396   -0.4640977   -0.1475702   -0.8734050
   0.0292289   -0.3634890    0.0462490   -0.5347910    0.0776957   -0.8414048
   0.0305478   -0.3627726    0.0458962   -0.1948187    0.4232555   -0.8848166
   0.0301762   -0.3630104    0.0458492   -0.2672121    0.2189405   -0.9384364
   0.0350442   -0.3639801    0.0467899    0.9866094    0.0572424   -0.1527260
   0.0350624   -0.3634595    0.0469763    0.9844194    0.0851500   -0.1538438
   0.0349160   -0.3628959    0.0467168    0.9356165    0.1494032   -0.3198444
   0.0352466   -0.3662765    0.0470493    0.9852960    0.0682619   -0.1566275
   0.0348159   -0.3623584    0.0467040    0.8887273    0.2842549   -0.3596707
   0.0344655   -0.3623902    0.0460952    0.6906702    0.3559575   -0.6294990
   0.0341581   -0.3624588    0.0457843    0.4459677    0.3421201   -0.8270832
   0.0317898   -0.3622874    0.0457339   -0.2095583    0.4199620   -0.8830160
   0.0338505   -0.3616109    0.0462895    0.2238427    0.7011251   -0.6769920
   0.0344242   -0.3618854    0.0463721    0.6077878    0.5286840   -0.5925261
   0.0326689   -0.3617221    0.0459659   -0.0160872    0.6709832   -0.7412980
   0.0339224   -0.3612297    0.0468017    0.2204874    0.8361951   -0.5021584
   0.0329447   -0.3614599    0.0462730   -0.0016345    0.8470942   -0.5314403
   0.0318697   -0.3619508    0.0459091   -0.2234111    0.6991901   -0.6791323
   0.0323274   -0.3617324    0.0460184   -0.2441826    0.7736358   -0.5846900
   0.0353762   -0.3679935    0.0472673    0.9876509    0.0199295    0.1553982
   0.0353307   -0.3674216    0.0471978    0.9890254    0.1252617   -0.0783477
   0.0353303   -0.3674196    0.0471977    0.9888400    0.1482263   -0.0149824
   0.0353925   -0.3697165    0.0472784    0.9441618    0.0099483    0.3293319
   0.0353713   -0.3687760    0.0474397    0.8848235   -0.0717455    0.4603695
   0.0353660   -0.3686168    0.0474882    0.9465718    0.0022157    0.3224857
   0.0352518   -0.3663589    0.0474852    0.9897841    0.0737291    0.1220307
   0.0353319   -0.3674820    0.0475070    0.9834339    0.0592155    0.1713224
   0.0297577   -0.3668448    0.0468782   -0.6790856   -0.3087883   -0.6659524
   0.0302162   -0.3688714    0.0472331   -0.7436284   -0.2433956   -0.6227161
   0.0295778   -0.3676119    0.0474676   -0.7925694   -0.2894340   -0.5367139
   0.0301477   -0.3666034    0.0464906   -0.5430426   -0.2580553   -0.7990696
   0.0315137   -0.3712139    0.0465101   -0.5876038   -0.1437677   -0.7962742
   0.0311783   -0.3714186    0.0468318   -0.7090499   -0.1880318   -0.6796265
   0.0304461   -0.3700987    0.0473402   -0.8235109   -0.2000861   -0.5308440
   0.0298095   -0.3693574    0.0480625   -0.8775246   -0.2492695   -0.4096526
   0.0298438   -0.3686878    0.0476534   -0.8176258   -0.2706242   -0.5081836
   0.0327654   -0.3740863    0.0462330   -0.5160639   -0.1994688   -0.8330008
   0.0320178   -0.3727104    0.0464185   -0.6374167   -0.1739209   -0.7506341
   0.0336899   -0.3736119    0.0458134   -0.2003909   -0.0231359   -0.9794428
   0.0343234   -0.3727574    0.0457636    0.0287015    0.0229282   -0.9993250
   0.0337825   -0.3747320    0.0458461   -0.3708263   -0.0736930   -0.9257739
   0.0355467   -0.3734787    0.0462168    0.7955655    0.2570695   -0.5486262
   0.0347863   -0.3725820    0.0458764    0.3890030    0.1122530   -0.9143719
   0.0354374   -0.3727233    0.0465174    0.9680279    0.1327087   -0.2128625
   0.0353800   -0.3718969    0.0467445    0.9983368    0.0043980    0.0574823
   0.0354077   -0.3702901    0.0472977    0.9390513   -0.0445615    0.3408766
   0.0298158   -0.3655671    0.0463605   -0.4880352   -0.2686927   -0.8304372
   0.0293199   -0.3645187    0.0463105   -0.5276499   -0.1678976   -0.8327040
   0.0288496   -0.3637057    0.0465321   -0.6821459    0.0870579   -0.7260151
   0.0294222   -0.3630515    0.0462194   -0.5688060    0.3461419   -0.7460868
   0.0299026   -0.3629289    0.0459863   -0.3846857    0.3808031   -0.8408364
   0.0303913   -0.3621995    0.0462892   -0.2817768    0.6702956   -0.6865170
   0.0308500   -0.3619847    0.0463980   -0.1998581    0.8755771   -0.4397971
   0.0297158   -0.3627043    0.0462397   -0.4099163    0.5472949   -0.7296827
   0.0351847   -0.3658352    0.0476046    0.9669903    0.0759052    0.2432450
   0.0351266   -0.3648471    0.0475558    0.9868406    0.0366753    0.1574817
   0.0351188   -0.3647077    0.0475956    0.9919562    0.0245514    0.1241781
   0.0349400   -0.3624128    0.0472495    0.9778811    0.2010510   -0.0576805
   0.0350596   -0.3633970    0.0473236    0.9940895    0.0878631    0.0637656
   0.0347896   -0.3619040    0.0472721    0.8922157    0.4357715   -0.1185505
   0.0345885   -0.3617525    0.0468327    0.8003200    0.5124613   -0.3112415
   0.0340000   -0.3615220    0.0464385    0.3536247    0.7023561   -0.6177747
   0.0343487   -0.3615203    0.0467180    0.5678987    0.6826179   -0.4599173
   0.0324636   -0.3615957    0.0461722   -0.2123332    0.8827698   -0.4190847
   0.0337023   -0.3610349    0.0473478   -0.1375014    0.9623442   -0.2344930
   0.0342857   -0.3612795    0.0470758    0.5570174    0.8060616   -0.1999909
   0.0313305   -0.3618470    0.0464987   -0.2851056    0.9362336   -0.2053812
   0.0324359   -0.3614814    0.0465167   -0.3171767    0.9316537   -0.1772575
   0.0350230   -0.3682814    0.0479823    0.8100572   -0.0774876    0.5812083
   0.0351260   -0.3676544    0.0479430    0.8233570   -0.0591413    0.5644339
   0.0352326   -0.3701149    0.0475442    0.7747744   -0.0388432    0.6310435
   0.0349705   -0.3694383    0.0478870    0.7535044   -0.0632431    0.6543940
   0.0343736   -0.3688565    0.0485884    0.7538522   -0.0538959    0.6548298
   0.0351748   -0.3670407    0.0478560    0.8932723    0.0499508    0.4467320
   0.0288188   -0.3662388    0.0476432   -0.7709300   -0.3697925   -0.5185754
   0.0289374   -0.3654881    0.0469996   -0.7059809   -0.3222698   -0.6306609
   0.0298553   -0.3661589    0.0465255   -0.5687354   -0.3009482   -0.7654869
   0.0291575   -0.3672954    0.0478936   -0.8096062   -0.3419240   -0.4771015
   0.0289506   -0.3668070    0.0478895   -0.8000307   -0.3782656   -0.4656888
   0.0294227   -0.3684318    0.0483878   -0.8867163   -0.3358610   -0.3176973
   0.0296028   -0.3689092    0.0482743   -0.9014238   -0.2736639   -0.3354747
   0.0310801   -0.3727259    0.0474108   -0.7941552   -0.2283601   -0.5631777
   0.0308445   -0.3722844    0.0475941   -0.8432831   -0.2358664   -0.4829499
   0.0305213   -0.3712838    0.0476665   -0.8589590   -0.2317581   -0.4565935
   0.0300449   -0.3704406    0.0482217   -0.9116787   -0.2382231   -0.3348011
   0.0299000   -0.3699358    0.0482725   -0.9100854   -0.2449318   -0.3342948
   0.0296368   -0.3696403    0.0491462   -0.9418404   -0.2954390   -0.1601641
   0.0323661   -0.3746764    0.0467050   -0.4278079   -0.2264694   -0.8750383
   0.0320771   -0.3745002    0.0468611   -0.5509852   -0.2631721   -0.7919317
   0.0315816   -0.3736028    0.0470904   -0.7260736   -0.2156169   -0.6529369
   0.0312780   -0.3731982    0.0473100   -0.7946523   -0.2268402   -0.5630908
   0.0346844   -0.3743189    0.0456863    0.0207414    0.1578549   -0.9872445
   0.0341351   -0.3751248    0.0456696   -0.4397477    0.0812135   -0.8944419
   0.0360031   -0.3744424    0.0462417    0.7996307    0.4197568   -0.4294125
   0.0355535   -0.3740064    0.0459842    0.5350549    0.2806808   -0.7968278
   0.0358911   -0.3739840    0.0466091    0.9203108    0.3893681   -0.0376901
   0.0354850   -0.3728769    0.0468337    0.9696639    0.2392670    0.0500328
   0.0353275   -0.3714544    0.0471776    0.9155332   -0.0270368    0.4013328
   0.0352222   -0.3727439    0.0476537    0.9220596    0.1614621    0.3517615
   0.0353928   -0.3708506    0.0471816    0.9313153   -0.0953775    0.3515039
   0.0351591   -0.3710792    0.0474958    0.8221484   -0.0601536    0.5660861
   0.0292697   -0.3649446    0.0464582   -0.5238347   -0.3030211   -0.7961001
   0.0290236   -0.3652790    0.0468087   -0.6452469   -0.3183102   -0.6945034
   0.0289887   -0.3648139    0.0466057   -0.6505226   -0.2719445   -0.7091308
   0.0288048   -0.3643179    0.0466226   -0.6922284   -0.1708692   -0.7011587
   0.0283910   -0.3640018    0.0470540   -0.8390784   -0.0589881   -0.5408030
   0.0283545   -0.3634690    0.0472008   -0.8435259    0.1738436   -0.5081755
   0.0288574   -0.3628559    0.0468188   -0.6639483    0.4449596   -0.6009855
   0.0293113   -0.3626398    0.0465955   -0.5494076    0.6161159   -0.5644045
   0.0301552   -0.3619478    0.0468409   -0.2424583    0.9123946   -0.3297727
   0.0298931   -0.3622577    0.0465294   -0.4306697    0.7063546   -0.5617711
   0.0310367   -0.3619955    0.0472013   -0.2041476    0.9735373    0.1027082
   0.0298025   -0.3618872    0.0475653    0.0535557    0.9913223    0.1200497
   0.0349256   -0.3647202    0.0480945    0.9018480    0.0134032    0.4318455
   0.0348318   -0.3668245    0.0483109    0.8135680    0.0159639    0.5812506
   0.0350051   -0.3636541    0.0478527    0.9499352    0.0549007    0.3075859
   0.0349224   -0.3625327    0.0478282    0.9626926    0.1263212    0.2393031
   0.0347886   -0.3620250    0.0478891    0.9122282    0.3287382    0.2444808
   0.0345471   -0.3614746    0.0474950    0.8051220    0.5912889    0.0464332
   0.0324358   -0.3614644    0.0468511   -0.3759182    0.9266358    0.0056285
   0.0325885   -0.3613712    0.0473326   -0.4543595    0.8895905   -0.0467561
   0.0325867   -0.3613486    0.0476676   -0.4825887    0.8557200   -0.1866856
   0.0336876   -0.3609664    0.0476874    0.2063314    0.9724448   -0.1085285
   0.0331760   -0.3609770    0.0479325   -0.1571921    0.9741138   -0.1624589
   0.0329248   -0.3610885    0.0479038   -0.4256094    0.8693228   -0.2512657
   0.0340650   -0.3611297    0.0476313    0.4073280    0.9037283   -0.1317542
   0.0342785   -0.3612232    0.0477463    0.6234568    0.7781223    0.0763375
   0.0346526   -0.3668116    0.0485006    0.7144100   -0.0371411    0.6987409
   0.0348726   -0.3712073    0.0478820    0.8163233    0.0254743    0.5770331
   0.0348177   -0.3698476    0.0479584    0.7649798   -0.0538487    0.6417992
   0.0342683   -0.3699156    0.0488119    0.8091051   -0.0119531    0.5875424
   0.0340460   -0.3664474    0.0491222    0.7764168   -0.0584680    0.6275017
   0.0333247   -0.3681324    0.0499619    0.7541747   -0.0446355    0.6551551
   0.0281001   -0.3648554    0.0478543   -0.8315797   -0.2676191   -0.4866777
   0.0281898   -0.3654472    0.0481277   -0.8636942   -0.3575175   -0.3552656
   0.0287885   -0.3669844    0.0484507   -0.8699219   -0.3867954   -0.3059824
   0.0291071   -0.3681513    0.0492146   -0.9147165   -0.3641352   -0.1752121
   0.0307458   -0.3730307    0.0482549   -0.8971580   -0.2573625   -0.3589875
   0.0306105   -0.3725075    0.0482347   -0.9173843   -0.2506829   -0.3091345
   0.0301534   -0.3710116    0.0484347   -0.9446821   -0.2669199   -0.1906027
   0.0299536   -0.3707509    0.0496180   -0.9454786   -0.3254595   -0.0120980
   0.0292910   -0.3689278    0.0506567   -0.9204900   -0.3829253    0.0778867
   0.0290998   -0.3682516    0.0497171   -0.9325732   -0.3547012   -0.0670391
   0.0326222   -0.3753862    0.0466754   -0.6161342   -0.1708725   -0.7688831
   0.0322838   -0.3749886    0.0468648    0.9474423   -0.0970391   -0.3048548
   0.0322838   -0.3749886    0.0468648    0.4087304   -0.2603480   -0.8747333
   0.0322838   -0.3749886    0.0468648    0.7462781   -0.2439510   -0.6193198
   0.0321295   -0.3750891    0.0470371   -0.6672495   -0.2897278   -0.6861748
   0.0319945   -0.3751817    0.0472276   -0.7513636   -0.2504813   -0.6105013
   0.0313153   -0.3744506    0.0479124   -0.8670247   -0.2372865   -0.4381362
   0.0360831   -0.3754533    0.0456916    0.5166757    0.3666837   -0.7736855
   0.0351528   -0.3752289    0.0454621    0.1440505    0.3260831   -0.9343015
   0.0347287   -0.3748536    0.0455760   -0.1479356    0.2414465   -0.9590718
   0.0347468   -0.3758403    0.0452646   -0.1773753    0.2396304   -0.9545236
   0.0342421   -0.3761799    0.0454064   -0.5896054    0.0871605   -0.8029748
   0.0333096   -0.3761746    0.0463067   -0.6514183   -0.0440709   -0.7574378
   0.0366218   -0.3753652    0.0464116    0.8540096    0.4804708   -0.1995379
   0.0363534   -0.3749241    0.0465226    0.8715267    0.4877422   -0.0504855
   0.0358419   -0.3740916    0.0470464    0.8738305    0.3845841    0.2975152
   0.0354936   -0.3730968    0.0470966    0.9111554    0.2901607    0.2925792
   0.0348349   -0.3717406    0.0480045    0.8491179    0.0964329    0.5193259
   0.0347947   -0.3724893    0.0483824    0.8456156    0.1602472    0.5091710
   0.0356028   -0.3736457    0.0472016    0.8717772    0.2155309    0.4399442
   0.0281577   -0.3640138    0.0475210   -0.9134287    0.0390181   -0.4051243
   0.0278852   -0.3644291    0.0481525   -0.9589150   -0.0589896   -0.2774929
   0.0286931   -0.3628763    0.0470095   -0.7542135    0.4464191   -0.4815310
   0.0279584   -0.3638094    0.0480866   -0.9435769    0.1609926   -0.2893855
   0.0282641   -0.3631650    0.0475575   -0.8721776    0.3901443   -0.2951164
   0.0286479   -0.3626995    0.0473607   -0.6892344    0.6197753   -0.3752792
   0.0290867   -0.3624303    0.0471429   -0.6249037    0.6348980   -0.4543126
   0.0291464   -0.3620051    0.0476596   -0.4860747    0.7922411   -0.3688976
   0.0292989   -0.3619272    0.0478075   -0.1390385    0.9709615    0.1946848
   0.0308978   -0.3620906    0.0477163   -0.1837594    0.9738521    0.1335837
   0.0317054   -0.3618913    0.0477702   -0.3191480    0.9475177    0.0188326
   0.0321642   -0.3616918    0.0475452   -0.4911037    0.8703503   -0.0361600
   0.0303903   -0.3621159    0.0479600    0.1363033    0.9303721    0.3403368
   0.0347908   -0.3655718    0.0483630    0.7874238    0.0039131    0.6163995
   0.0347261   -0.3652216    0.0484270    0.8222315    0.0194798    0.5688198
   0.0348167   -0.3638221    0.0483041    0.8553268    0.0229439    0.5175806
   0.0347934   -0.3630238    0.0482206    0.8922461    0.0532125    0.4484030
   0.0347523   -0.3626946    0.0482964    0.8808326    0.1043524    0.4617840
   0.0346124   -0.3621884    0.0483519    0.7975801    0.3260458    0.5075038
   0.0344851   -0.3616186    0.0481096    0.7854516    0.5088915    0.3522715
   0.0319749   -0.3615917    0.0484133   -0.5220172    0.8084936   -0.2717280
   0.0338726   -0.3610040    0.0478228    0.3206903    0.9454469    0.0573395
   0.0331621   -0.3609122    0.0482716   -0.2583387    0.9528927   -0.1589232
   0.0343268   -0.3613786    0.0480622    0.6170648    0.7151544    0.3283066
   0.0345568   -0.3708663    0.0483997    0.8331960    0.0921016    0.5452539
   0.0344346   -0.3702997    0.0484892    0.8384084    0.0078507    0.5449861
   0.0336535   -0.3714874    0.0496277    0.7406809    0.0491361    0.6700578
   0.0331686   -0.3694703    0.0500526    0.6910486   -0.0108776    0.7227264
   0.0328731   -0.3668376    0.0506862    0.7704802   -0.1130020    0.6273682
   0.0341929   -0.3648202    0.0491196    0.7985532   -0.0213151    0.6015467
   0.0336445   -0.3651989    0.0498714    0.8368580   -0.0615266    0.5439514
   0.0335512   -0.3658805    0.0499004    0.8201191   -0.1100022    0.5615195
   0.0329028   -0.3690680    0.0503019    0.7119065   -0.0442947    0.7008759
   0.0326160   -0.3680307    0.0507440    0.8233268   -0.0794764    0.5619756
   0.0279171   -0.3650826    0.0486194   -0.9370806   -0.2922155   -0.1910238
   0.0281015   -0.3655770    0.0486036   -0.9110434   -0.3880672   -0.1392976
   0.0302589   -0.3716109    0.0487799   -0.9618815   -0.2524380   -0.1051616
   0.0311437   -0.3751361    0.0488639   -0.9712871   -0.1931925   -0.1388453
   0.0301093   -0.3712475    0.0495470   -0.9539637   -0.2965049    0.0451454
   0.0296093   -0.3694523    0.0510822   -0.8306200   -0.4183366    0.3675118
   0.0289363   -0.3678036    0.0514945   -0.8425136   -0.4331959    0.3201751
   0.0288901   -0.3679282    0.0505610   -0.9284488   -0.3714537   -0.0022349
   0.0292507   -0.3683016    0.0515812   -0.7599195   -0.4337452    0.4841358
   0.0285431   -0.3667535    0.0496925   -0.9372450   -0.3462436   -0.0410743
   0.0326410   -0.3765843    0.0469521   -0.6804673   -0.1217310   -0.7225966
   0.0323126   -0.3755834    0.0470203   -0.6821794   -0.2005184   -0.7031527
   0.0321628   -0.3751632    0.0470393   -0.5461933   -0.2847587   -0.7877724
   0.0321833   -0.3762784    0.0473447   -0.7616974   -0.1601410   -0.6278311
   0.0312834   -0.3750429    0.0483487   -0.8996659   -0.1926379   -0.3917805
   0.0360741   -0.3759938    0.0454788    0.3621299    0.2383153   -0.9011480
   0.0367439   -0.3763479    0.0458073    0.6595515    0.3185119   -0.6808392
   0.0352902   -0.3757149    0.0452963    0.1488053    0.2672318   -0.9520736
   0.0346625   -0.3765320    0.0451699   -0.2684110    0.0657034   -0.9610612
   0.0349681   -0.3763953    0.0451316    0.0497758    0.1330786   -0.9898548
   0.0336934   -0.3771000    0.0459790   -0.7165708   -0.0907161   -0.6915901
   0.0342495   -0.3773204    0.0453646   -0.6017371   -0.0918947   -0.7933901
   0.0343228   -0.3767007    0.0452989   -0.4563689    0.0073410   -0.8897604
   0.0370001   -0.3763135    0.0461841    0.8652618    0.3448136   -0.3639032
   0.0368823   -0.3758595    0.0465586    0.9052211    0.4162413    0.0855452
   0.0364991   -0.3752439    0.0468622    0.8272711    0.4046499    0.3897190
   0.0363672   -0.3749818    0.0468434    0.8472165    0.4024038    0.3468362
   0.0348302   -0.3736831    0.0486742    0.7990997    0.2063114    0.5646905
   0.0357801   -0.3748276    0.0477403    0.8234517    0.2973574    0.4832244
   0.0342067   -0.3719098    0.0490904    0.7874624    0.1193495    0.6046971
   0.0344172   -0.3727649    0.0489762    0.7520344    0.1071099    0.6503627
   0.0279071   -0.3636937    0.0484127   -0.9679137    0.1877335   -0.1670308
   0.0277223   -0.3647644    0.0495252   -0.9880024   -0.1416873   -0.0614493
   0.0277517   -0.3643358    0.0490628   -0.9888523   -0.0016842   -0.1488902
   0.0281211   -0.3632455    0.0480743   -0.9156680    0.2936548   -0.2744431
   0.0282619   -0.3630626    0.0478760   -0.8921779    0.2802504   -0.3542292
   0.0283667   -0.3629092    0.0477242   -0.8429961    0.4175152   -0.3391734
   0.0287774   -0.3622783    0.0479323   -0.7341748    0.6732220   -0.0880876
   0.0289916   -0.3620585    0.0478469   -0.6119846    0.7885539   -0.0604770
   0.0302301   -0.3621510    0.0481489    0.0065045    0.9095344    0.4155777
   0.0293300   -0.3620798    0.0481106   -0.0735212    0.8289423    0.5544811
   0.0288962   -0.3623095    0.0483457   -0.2047113    0.8037665    0.5586168
   0.0309159   -0.3621000    0.0487140   -0.4663263    0.8488038   -0.2491423
   0.0312201   -0.3619631    0.0486737   -0.4323725    0.8626362   -0.2625124
   0.0306807   -0.3622192    0.0488154   -0.5850773    0.8100969   -0.0377832
   0.0303119   -0.3624103    0.0487862   -0.3127422    0.8958440    0.3156831
   0.0345222   -0.3638740    0.0487092    0.8240733    0.0150791    0.5662825
   0.0340501   -0.3627820    0.0493500    0.8274839    0.1029746    0.5519661
   0.0336793   -0.3614780    0.0491556    0.6904480    0.5329903    0.4890836
   0.0338982   -0.3614074    0.0486964    0.6401454    0.6202256    0.4533586
   0.0317530   -0.3613915    0.0489597   -0.5190416    0.7519558   -0.4063967
   0.0339008   -0.3610879    0.0481464    0.4421638    0.8439228    0.3037853
   0.0331785   -0.3609537    0.0485997    0.1680457    0.9637229    0.2073616
   0.0317183   -0.3612514    0.0493068   -0.5021097    0.8268991   -0.2532265
   0.0318633   -0.3611308    0.0497914   -0.2631989    0.9415347    0.2103301
   0.0331001   -0.3612482    0.0494261    0.4609683    0.7900888    0.4040644
   0.0332812   -0.3711260    0.0499246    0.6161039    0.0173232    0.7874744
   0.0337052   -0.3720428    0.0496316    0.6993578    0.0750195    0.7108240
   0.0325015   -0.3663815    0.0511975    0.8509236   -0.1015558    0.5153789
   0.0326592   -0.3658696    0.0511637    0.7999924   -0.1347995    0.5846719
   0.0332391   -0.3649403    0.0506192    0.8237615   -0.0654433    0.5631466
   0.0326610   -0.3712648    0.0503690    0.7012034   -0.0383960    0.7119266
   0.0325511   -0.3687230    0.0507922    0.8737389   -0.0797499    0.4798128
   0.0323434   -0.3683537    0.0514058    0.9183785   -0.0339471    0.3942443
   0.0278765   -0.3652615    0.0494560   -0.9404382   -0.3390853   -0.0244374
   0.0280888   -0.3657198    0.0493130   -0.9079183   -0.4087729   -0.0926774
   0.0285857   -0.3670170    0.0511452   -0.9424875   -0.3325240    0.0338383
   0.0305393   -0.3726923    0.0490298   -0.9646087   -0.2636470    0.0044996
   0.0304049   -0.3722750    0.0495475   -0.9610898   -0.2725981    0.0446852
   0.0313987   -0.3756529    0.0483473   -0.8992948   -0.1138504   -0.4222642
   0.0312170   -0.3758443    0.0489315   -0.9729477   -0.0420766   -0.2271616
   0.0305872   -0.3728296    0.0498386   -0.9650627   -0.2477112    0.0854003
   0.0309735   -0.3744092    0.0499151   -0.9664069   -0.2354578    0.1030401
   0.0311338   -0.3754345    0.0496140   -0.9959916   -0.0569536    0.0689716
   0.0310985   -0.3749269    0.0498831   -0.7608351   -0.5824682    0.2861132
   0.0301840   -0.3708697    0.0507320   -0.8256279   -0.3695425    0.4263530
   0.0304202   -0.3718444    0.0503341   -0.8985981   -0.2568356    0.3557484
   0.0305757   -0.3708099    0.0512875   -0.5635217   -0.4039156    0.7206216
   0.0300657   -0.3698833    0.0513313   -0.6558068   -0.4184041    0.6283752
   0.0294754   -0.3684767    0.0517016   -0.6169802   -0.4298571    0.6592104
   0.0287593   -0.3675510    0.0513045   -0.9162394   -0.3659679    0.1630119
   0.0294129   -0.3679869    0.0520052   -0.5161434   -0.4874742    0.7042478
   0.0287635   -0.3670836    0.0518751   -0.8286468   -0.3802017    0.4108419
   0.0294732   -0.3684715    0.0517027   -0.3984148   -0.5108336    0.7617838
   0.0325235   -0.3778338    0.0471984   -0.6801634   -0.1281844   -0.7217662
   0.0317272   -0.3771750    0.0479994   -0.7915308   -0.0606510   -0.6081122
   0.0367095   -0.3769053    0.0456272    0.4850355    0.1382104   -0.8635036
   0.0359772   -0.3765840    0.0453448    0.3381986    0.1241531   -0.9328492
   0.0354158   -0.3767857    0.0451582    0.2189705    0.0691745   -0.9732763
   0.0371608   -0.3773386    0.0458826    0.6995440    0.1721385   -0.6935464
   0.0350870   -0.3769158    0.0451075    0.0123053   -0.0348062   -0.9993183
   0.0348196   -0.3773257    0.0451609   -0.2190057   -0.0889369   -0.9716618
   0.0342542   -0.3779210    0.0454988   -0.6098321   -0.2173236   -0.7621517
   0.0337447   -0.3788913    0.0464149   -0.6381807   -0.3254938   -0.6976956
   0.0348867   -0.3787758    0.0453931   -0.3234537   -0.2099099   -0.9226676
   0.0343975   -0.3772430    0.0452843   -0.3619685   -0.1019947   -0.9265937
   0.0370856   -0.3763634    0.0466326    0.9415586    0.3219388    0.0991100
   0.0371883   -0.3768195    0.0462351    0.9371839    0.2875635   -0.1974678
   0.0372840   -0.3773244    0.0460772    0.9085608    0.1883379   -0.3728888
   0.0369921   -0.3763771    0.0468818    0.8550154    0.3244604    0.4045665
   0.0369123   -0.3765268    0.0470975    0.8043654    0.3168730    0.5025812
   0.0359433   -0.3759905    0.0481438    0.7388577    0.3386878    0.5825632
   0.0357292   -0.3755017    0.0481344    0.7677054    0.2851300    0.5738721
   0.0348472   -0.3742807    0.0488190    0.7177096    0.2047122    0.6655718
   0.0336341   -0.3732629    0.0498296    0.5889863    0.0925186    0.8028297
   0.0276957   -0.3641205    0.0494180   -0.9827983    0.1724129   -0.0661912
   0.0280767   -0.3630552    0.0487592   -0.8679182    0.4966659   -0.0064039
   0.0277468   -0.3648168    0.0498460   -0.9791058   -0.1706109    0.1106513
   0.0276951   -0.3641017    0.0497524   -0.9913276    0.1023833    0.0823852
   0.0283329   -0.3627728    0.0480708   -0.8332938    0.5217261   -0.1828206
   0.0281007   -0.3631246    0.0490844   -0.6988306    0.6762350    0.2331138
   0.0298085   -0.3624655    0.0486941   -0.1193886    0.8202441    0.5594158
   0.0301208   -0.3624286    0.0486695   -0.1955427    0.8610263    0.4694644
   0.0293990   -0.3627834    0.0489198   -0.1608289    0.7767396    0.6089414
   0.0280407   -0.3634859    0.0495665   -0.3495908    0.7965338    0.4932749
   0.0286923   -0.3631411    0.0492229   -0.1283212    0.7719467    0.6226009
   0.0290546   -0.3628405    0.0489542   -0.1175527    0.7658237    0.6322147
   0.0303627   -0.3625597    0.0494354   -0.6216679    0.7507657    0.2233379
   0.0305459   -0.3623724    0.0493145   -0.7385767    0.6683615    0.0883023
   0.0308802   -0.3619483    0.0493932   -0.7400362    0.6713202   -0.0409342
   0.0297443   -0.3628266    0.0491814   -0.2466709    0.8222822    0.5128406
   0.0300811   -0.3627828    0.0494650   -0.5564369    0.7723674    0.3063114
   0.0295429   -0.3633037    0.0498491   -0.3820395    0.8517854    0.3584794
   0.0331385   -0.3626797    0.0506280    0.7638893    0.1711208    0.6222466
   0.0330840   -0.3638971    0.0508399    0.7654015    0.0387697    0.6423842
   0.0336811   -0.3620740    0.0496178    0.8070936    0.2910568    0.5136982
   0.0330908   -0.3620911    0.0504555    0.6578637    0.4285845    0.6192985
   0.0328396   -0.3615160    0.0501158    0.4403832    0.6881421    0.5766481
   0.0327204   -0.3611227    0.0494928    0.2724392    0.9021462    0.3345281
   0.0320469   -0.3611630    0.0499277    0.0405446    0.9189185    0.3923581
   0.0314104   -0.3613658    0.0496806   -0.5908189    0.8048425   -0.0562280
   0.0314161   -0.3616389    0.0504071   -0.4312261    0.7814884    0.4509102
   0.0317030   -0.3615143    0.0503928   -0.1542045    0.8342855    0.5293285
   0.0314223   -0.3613926    0.0500099   -0.6213727    0.7451495    0.2421738
   0.0326045   -0.3613004    0.0499990    0.2419815    0.8275461    0.5065693
   0.0330075   -0.3718577    0.0501216    0.4311854   -0.0386116    0.9014368
   0.0320679   -0.3680024    0.0519593    0.8151988   -0.0344086    0.5781583
   0.0320371   -0.3668677    0.0519806    0.7704274   -0.0407208    0.6362259
   0.0330369   -0.3646228    0.0508912    0.7610705   -0.0439498    0.6471786
   0.0326942   -0.3646141    0.0512775    0.7579395    0.0008140    0.6523244
   0.0323621   -0.3716594    0.0506576    0.7348901   -0.1029275    0.6703302
   0.0324803   -0.3710280    0.0506318    0.8286114   -0.0962037    0.5514961
   0.0322122   -0.3706734    0.0511923    0.7467871   -0.1846578    0.6389136
   0.0322542   -0.3685428    0.0516008    0.8715420   -0.0807450    0.4836268
   0.0320158   -0.3691593    0.0518640    0.6115388   -0.1440849    0.7779845
   0.0319954   -0.3702662    0.0515863    0.7346555   -0.2251333    0.6399971
   0.0279760   -0.3653998    0.0503849   -0.9457371   -0.2725261    0.1769488
   0.0285231   -0.3665764    0.0517022   -0.9330281   -0.2650245    0.2433529
   0.0281821   -0.3654351    0.0510164   -0.9347408   -0.2041818    0.2908083
   0.0314099   -0.3760998    0.0484296   -0.9070400   -0.0131421   -0.4208393
   0.0312244   -0.3763981    0.0488403   -0.9690495    0.0597636   -0.2395232
   0.0311208   -0.3768536    0.0495933   -0.9978518   -0.0030913    0.0654385
   0.0309842   -0.3744132    0.0499616   -0.9357392   -0.2876102    0.2041384
   0.0311616   -0.3754523    0.0497601   -0.9737463   -0.1312014    0.1860226
   0.0312730   -0.3766269    0.0501188   -0.9591018   -0.0379826    0.2805016
   0.0310985   -0.3749269    0.0498831    0.9269061   -0.2426767    0.2862745
   0.0310985   -0.3749269    0.0498831    0.1322033   -0.7290294    0.6715939
   0.0307650   -0.3718168    0.0509497   -0.5753965   -0.2758613    0.7699477
   0.0305837   -0.3713259    0.0509900   -0.5943391   -0.3359473    0.7306849
   0.0311494   -0.3749601    0.0501702   -0.9448012   -0.1906844    0.2664399
   0.0312566   -0.3744241    0.0506090   -0.6776057   -0.1584662    0.7181497
   0.0314207   -0.3741936    0.0507118   -0.3206026   -0.1006052    0.9418559
   0.0315023   -0.3720148    0.0511681   -0.1536051   -0.3634295    0.9188713
   0.0309173   -0.3707168    0.0515553   -0.3704876   -0.3713832    0.8513598
   0.0305923   -0.3687442    0.0521787   -0.2192846   -0.3432095    0.9133025
   0.0302124   -0.3677485    0.0525327   -0.2938791   -0.4061545    0.8652593
   0.0299972   -0.3688635    0.0518670   -0.5341829   -0.4062763    0.7413422
   0.0296376   -0.3684358    0.0518461    0.4761499   -0.4356817    0.7638473
   0.0297980   -0.3683957    0.0519934   -0.4362466   -0.4852606    0.7577671
   0.0293159   -0.3669854    0.0525773   -0.4739288   -0.4125297    0.7779529
   0.0296376   -0.3684358    0.0518461    0.9450191   -0.1898632    0.2662534
   0.0296376   -0.3684358    0.0518461    0.7553983   -0.3924609    0.5247359
   0.0288232   -0.3665800    0.0523746   -0.7335192   -0.3203486    0.5994384
   0.0329046   -0.3788037    0.0470872   -0.5038347   -0.3081276   -0.8069746
   0.0325780   -0.3784574    0.0472693   -0.6626645   -0.1337592   -0.7368747
   0.0313167   -0.3774577    0.0485641   -0.8838268   -0.0472844   -0.4654185
   0.0316730   -0.3777902    0.0480815   -0.7834636   -0.0858910   -0.6154735
   0.0366124   -0.3775018    0.0455269    0.4517440    0.0539432   -0.8905153
   0.0361066   -0.3771042    0.0453414    0.3074947    0.0231104   -0.9512691
   0.0357694   -0.3783967    0.0453238    0.1455668   -0.0892692   -0.9853128
   0.0373367   -0.3784220    0.0459138    0.7961962    0.0452337   -0.6033452
   0.0352407   -0.3786167    0.0452953   -0.0480431   -0.1521059   -0.9871959
   0.0345065   -0.3790016    0.0456721   -0.6065303   -0.3974665   -0.6885792
   0.0348316   -0.3791852    0.0455424   -0.4226684   -0.3476960   -0.8369343
   0.0341789   -0.3798722    0.0467667   -0.5245376   -0.5912074   -0.6126451
   0.0335726   -0.3796570    0.0470108   -0.5053811   -0.4721338   -0.7222739
   0.0332844   -0.3791405    0.0469509   -0.3800115   -0.4466555   -0.8099939
   0.0352421   -0.3792156    0.0454212   -0.2020224   -0.2924973   -0.9346830
   0.0373795   -0.3773730    0.0465339    0.9711218    0.2193057    0.0939544
   0.0371990   -0.3769174    0.0467618    0.9004012    0.2508259    0.3554772
   0.0374837   -0.3787654    0.0461572    0.9599220    0.0041740   -0.2802362
   0.0375283   -0.3784297    0.0463733    0.9916806    0.0676755   -0.1094974
   0.0362540   -0.3770546    0.0483697    0.7230936    0.2535257    0.6425421
   0.0371134   -0.3776794    0.0475351    0.8429456    0.2189846    0.4914147
   0.0358766   -0.3766276    0.0485376    0.7485331    0.2660068    0.6074032
   0.0344948   -0.3751507    0.0495651    0.6557453    0.2681536    0.7057561
   0.0348733   -0.3760823    0.0495599    0.7339434    0.3070349    0.6058520
   0.0337669   -0.3743727    0.0498978    0.5558159    0.1838476    0.8107211
   0.0326218   -0.3738199    0.0504803    0.4695029    0.0979474    0.8774813
   0.0335625   -0.3744846    0.0500262    0.6230480    0.1427301    0.7690509
   0.0332773   -0.3728715    0.0500023    0.3444986   -0.0206595    0.9385595
   0.0327824   -0.3731381    0.0502924    0.5130439    0.0708550    0.8554330
   0.0277711   -0.3637675    0.0495948   -0.8828922    0.4536328    0.1213204
   0.0279947   -0.3649241    0.0509374   -0.9315910   -0.1213513    0.3426545
   0.0277297   -0.3642094    0.0500734   -0.9738606    0.1244050    0.1900497
   0.0277882   -0.3644014    0.0503855   -0.9616781    0.0504630    0.2694971
   0.0277991   -0.3638512    0.0499183   -0.7732571    0.5589753    0.2993661
   0.0288690   -0.3633743    0.0496160   -0.1863303    0.8537565    0.4861902
   0.0284405   -0.3636650    0.0501637   -0.2671636    0.8947627    0.3578034
   0.0306564   -0.3623617    0.0497353   -0.7680641    0.6096621    0.1959329
   0.0302863   -0.3628767    0.0499268   -0.6151443    0.7464965    0.2536544
   0.0309141   -0.3620371    0.0500484   -0.7985267    0.5730027    0.1844532
   0.0288059   -0.3637240    0.0504366   -0.1974852    0.9370627    0.2879462
   0.0294561   -0.3635687    0.0506784   -0.4657271    0.8788172    0.1038201
   0.0323694   -0.3625728    0.0513637    0.6284896    0.2762426    0.7271113
   0.0323652   -0.3622322    0.0511441    0.4731924    0.5524957    0.6861759
   0.0318944   -0.3617990    0.0509110   -0.0031996    0.8128061    0.5825256
   0.0318299   -0.3621582    0.0513980    0.1931713    0.6852568    0.7022165
   0.0308075   -0.3627887    0.0520166   -0.3382590    0.8683783    0.3626292
   0.0306397   -0.3625892    0.0506331   -0.7098860    0.6960356    0.1076860
   0.0311277   -0.3627013    0.0519726    0.0389402    0.7693889    0.6375926
   0.0330926   -0.3721966    0.0500777    0.1981284   -0.0659157    0.9779572
   0.0326095   -0.3720788    0.0503880    0.5850552   -0.0763819    0.8073885
   0.0319509   -0.3686736    0.0519727    0.5753845   -0.1640663    0.8012583
   0.0318231   -0.3675975    0.0522261    0.6655880   -0.0339883    0.7455450
   0.0317729   -0.3641673    0.0523328    0.6678185    0.0853736    0.7394118
   0.0312141   -0.3644883    0.0527663    0.5212515    0.0224954    0.8531066
   0.0314244   -0.3666604    0.0525458    0.5800187   -0.0176504    0.8144119
   0.0322230   -0.3721434    0.0507154    0.6974511   -0.2400813    0.6752206
   0.0320411   -0.3721015    0.0509126    0.6177776   -0.2743128    0.7369554
   0.0318231   -0.3719312    0.0511233    0.4302712   -0.2892522    0.8551023
   0.0315673   -0.3710040    0.0515540    0.3126224   -0.3388148    0.8873961
   0.0315630   -0.3699350    0.0519036    0.1726498   -0.2137883    0.9615023
   0.0318589   -0.3701948    0.0517256    0.4802215   -0.2629000    0.8368219
   0.0310799   -0.3695761    0.0519648    0.0814736   -0.2599943    0.9621668
   0.0284866   -0.3660674    0.0519728   -0.9237096   -0.0894206    0.3725111
   0.0283278   -0.3649172    0.0516327   -0.9214255   -0.0545953    0.3847004
   0.0280960   -0.3648434    0.0511429   -0.9023323   -0.0625520    0.4264781
   0.0311714   -0.3770658    0.0489061   -0.9466143   -0.0030460   -0.3223541
   0.0311048   -0.3770901    0.0491738   -0.9974027   -0.0296106   -0.0656582
   0.0312814   -0.3777395    0.0499370   -0.9629187   -0.1275631    0.2377294
   0.0311794   -0.3754718    0.0499077   -0.9750292   -0.0925638    0.2018664
   0.0314944   -0.3772010    0.0505930   -0.8574642   -0.0597837    0.5110588
   0.0313566   -0.3760630    0.0503717   -0.9672869   -0.0870613    0.2382780
   0.0312350   -0.3754936    0.0501338   -0.9447534   -0.1681911    0.2813409
   0.0312238   -0.3753575    0.0501700   -0.9635519   -0.1479945    0.2228571
   0.0312720   -0.3727467    0.0509101   -0.0585401   -0.2074997    0.9764819
   0.0312357   -0.3749700    0.0504120   -0.8442948   -0.0942888    0.5275187
   0.0321089   -0.3754010    0.0508631   -0.1935824    0.0147184    0.9809736
   0.0319675   -0.3742926    0.0507875    0.2314732    0.1055844    0.9670947
   0.0318658   -0.3736170    0.0507589    0.1331374   -0.0572250    0.9894442
   0.0313197   -0.3711162    0.0515215   -0.1280991   -0.3665223    0.9215487
   0.0318082   -0.3724989    0.0509240    0.4276796   -0.2196921    0.8768270
   0.0313359   -0.3705725    0.0517247   -0.0615027   -0.3023224    0.9512195
   0.0307830   -0.3680763    0.0524953   -0.0739977   -0.3364716    0.9387818
   0.0298042   -0.3684075    0.0519888   -0.2167270   -0.5054332    0.8352046
   0.0294937   -0.3664011    0.0529263   -0.2842742   -0.2787119    0.9173374
   0.0302551   -0.3666552    0.0529280    0.0279285   -0.2364564    0.9712406
   0.0286880   -0.3660687    0.0524197   -0.7778045   -0.1392409    0.6128883
   0.0293406   -0.3659035    0.0529940   -0.3940647   -0.1615834    0.9047673
   0.0322611   -0.3792058    0.0477551   -0.6661983   -0.3155230   -0.6757404
   0.0328041   -0.3798516    0.0476471   -0.5604930   -0.4173553   -0.7153056
   0.0329808   -0.3793849    0.0472850   -0.5321639   -0.3608231   -0.7659036
   0.0331540   -0.3792820    0.0471286    0.9479902   -0.1444540   -0.2836328
   0.0331540   -0.3792820    0.0471286    0.7562760   -0.2712904   -0.5953554
   0.0320625   -0.3787142    0.0477587   -0.7245053   -0.1832995   -0.6644496
   0.0313256   -0.3780584    0.0487016   -0.9142769   -0.1481589   -0.3770235
   0.0311734   -0.3776071    0.0490191   -0.9827652   -0.1040718   -0.1527796
   0.0317035   -0.3789854    0.0483687   -0.8255353   -0.2285959   -0.5159800
   0.0369917   -0.3785188    0.0456504    0.5060734    0.0132038   -0.8623894
   0.0368483   -0.3791472    0.0456095    0.3844334   -0.1372428   -0.9128940
   0.0363729   -0.3791432    0.0454732    0.2055186   -0.1368189   -0.9690422
   0.0358473   -0.3795464    0.0454801    0.0649161   -0.2907389   -0.9545977
   0.0355661   -0.3793463    0.0454188   -0.0241588   -0.2529308   -0.9671827
   0.0373745   -0.3789975    0.0459933    0.9904035   -0.0047805   -0.1381234
   0.0373745   -0.3789975    0.0459933    0.9590705   -0.0322537   -0.2813246
   0.0372271   -0.3790280    0.0458297    0.6361462   -0.0724493   -0.7681596
   0.0350139   -0.3798176    0.0458083   -0.4976344   -0.6049494   -0.6216078
   0.0352644   -0.3798328    0.0456743   -0.2497022   -0.5034119   -0.8271791
   0.0333369   -0.3805066    0.0478567   -0.3296469   -0.6836710   -0.6510967
   0.0344239   -0.3801226    0.0468797   -0.3438006   -0.8134017   -0.4692321
   0.0349219   -0.3800977    0.0462997   -0.4627430   -0.7568147   -0.4616279
   0.0332550   -0.3798573    0.0473482   -0.4574349   -0.4847776   -0.7454823
   0.0331540   -0.3792820    0.0471286    0.4852535   -0.4000931   -0.7774668
   0.0373573   -0.3780815    0.0471676    0.9082805    0.1396309    0.3943725
   0.0375087   -0.3785432    0.0469082    0.9750083    0.0333550    0.2196502
   0.0374853   -0.3789929    0.0462041    0.9695196   -0.0928628   -0.2267340
   0.0375158   -0.3790833    0.0467355    0.9843584   -0.1288103    0.1201934
   0.0373745   -0.3789975    0.0459933    0.9507201   -0.1014195   -0.2929939
   0.0354247   -0.3782251    0.0496216    0.8145665    0.0385955    0.5787847
   0.0359627   -0.3784168    0.0488212    0.7472910   -0.1140492    0.6546364
   0.0364373   -0.3775488    0.0483529    0.6873595    0.1470821    0.7112692
   0.0365599   -0.3780596    0.0482824    0.7267121    0.0103256    0.6868645
   0.0371172   -0.3782799    0.0476686    0.7934905   -0.0317764    0.6077525
   0.0352556   -0.3777592    0.0498207    0.8278064    0.1071233    0.5506915
   0.0348116   -0.3774781    0.0503645    0.7094217    0.2415505    0.6620984
   0.0345577   -0.3757366    0.0497507    0.5996672    0.3335433    0.7274257
   0.0338084   -0.3755648    0.0501949    0.4344552    0.2874460    0.8535944
   0.0337718   -0.3749732    0.0500321    0.6120800    0.1989605    0.7653579
   0.0345952   -0.3769908    0.0503528    0.6061135    0.3439998    0.7171405
   0.0335736   -0.3745142    0.0500254    0.4699384    0.1818636    0.8637613
   0.0333800   -0.3745907    0.0501741    0.5212864    0.1727920    0.8357054
   0.0325835   -0.3744307    0.0505767    0.3986332    0.1162647    0.9097110
   0.0331820   -0.3747013    0.0503082    0.4730614    0.1567675    0.8669700
   0.0325162   -0.3727027    0.0504361    0.5446256    0.0330255    0.8380288
   0.0335641   -0.3750850    0.0501578    0.8733412    0.1024734    0.4762084
   0.0335641   -0.3750850    0.0501578    0.9161400    0.0870794    0.3912859
   0.0278896   -0.3641419    0.0505524   -0.8597010    0.3115679    0.4047711
   0.0278375   -0.3639718    0.0502379   -0.7642646    0.5568515    0.3252937
   0.0283217   -0.3638316    0.0506711   -0.4281115    0.8468128    0.3156400
   0.0305736   -0.3626568    0.0502293   -0.7818768    0.6118180    0.1197807
   0.0303157   -0.3629490    0.0505841   -0.6603551    0.7508225    0.0140219
   0.0289976   -0.3637682    0.0509037   -0.4000500    0.9164116    0.0122361
   0.0283844   -0.3640230    0.0513158   -0.5694646    0.7737559    0.2775101
   0.0298893   -0.3632469    0.0511311   -0.5511538    0.8305939   -0.0796449
   0.0317865   -0.3635622    0.0522146    0.5765898    0.2325699    0.7832340
   0.0318709   -0.3628936    0.0518456    0.4250734    0.4753452    0.7702983
   0.0301669   -0.3629767    0.0517712   -0.5313893    0.8422281    0.0909794
   0.0307268   -0.3630893    0.0525101   -0.0203019    0.7711965    0.6362733
   0.0305760   -0.3629046    0.0521221   -0.3003003    0.8872148    0.3502423
   0.0310826   -0.3631304    0.0524523    0.4124720    0.5010984    0.7607675
   0.0314414   -0.3683412    0.0523329    0.3254296   -0.2568716    0.9100069
   0.0316309   -0.3676923    0.0523701    0.4714112   -0.1136069    0.8745656
   0.0308912   -0.3640699    0.0528693    0.4083162    0.1620993    0.8983328
   0.0308654   -0.3663812    0.0528488    0.3188978   -0.0965547    0.9428581
   0.0307494   -0.3647254    0.0529740    0.2921888    0.0220884    0.9561055
   0.0310899   -0.3679484    0.0525105    0.1857761   -0.2321664    0.9547702
   0.0286319   -0.3648995    0.0522103   -0.8424762    0.1580909    0.5150156
   0.0283906   -0.3646338    0.0517765   -0.8516538    0.1256354    0.5088237
   0.0287455   -0.3652445    0.0525160   -0.8323687    0.0820009    0.5481224
   0.0281809   -0.3645250    0.0513160   -0.8770546    0.1803174    0.4452649
   0.0314600   -0.3777566    0.0504131   -0.9178916   -0.1659321    0.3604740
   0.0312354   -0.3782016    0.0492395   -0.9830584   -0.1820491    0.0213129
   0.0314515   -0.3782664    0.0500486   -0.9336400   -0.2264226    0.2775772
   0.0316814   -0.3775584    0.0507949   -0.7675935   -0.0365001    0.6398968
   0.0317602   -0.3788255    0.0506373   -0.8807934   -0.1766802    0.4393029
   0.0317579   -0.3765598    0.0508327   -0.4670823    0.0558650    0.8824473
   0.0316902   -0.3760035    0.0507913   -0.4497961    0.0467450    0.8919072
   0.0327435   -0.3761351    0.0507991    0.2962773    0.2066587    0.9324763
   0.0321545   -0.3758274    0.0509024   -0.0492427    0.0936929    0.9943826
   0.0327659   -0.3749266    0.0505587    0.4071391    0.1418248    0.9022879
   0.0330061   -0.3761419    0.0506778    0.4015663    0.2263866    0.8874084
   0.0302551   -0.3660962    0.0530098    0.0366509   -0.1212487    0.9919453
   0.0290599   -0.3654237    0.0528725   -0.6048701    0.0300246    0.7957579
   0.0295016   -0.3654504    0.0530524   -0.2383051   -0.0180520    0.9710226
   0.0323384   -0.3800101    0.0482090   -0.6624771   -0.4932332   -0.5637775
   0.0318850   -0.3794814    0.0483499   -0.8081529   -0.3663855   -0.4611405
   0.0330434   -0.3794932    0.0472991   -0.2734684   -0.4332268   -0.8587954
   0.0329567   -0.3803793    0.0479236   -0.4541950   -0.6098345   -0.6494681
   0.0313714   -0.3786469    0.0488726   -0.9332519   -0.2614758   -0.2463153
   0.0372284   -0.3790992    0.0458430    0.7571361   -0.1724782   -0.6300764
   0.0370249   -0.3796013    0.0458431    0.6233427   -0.3592855   -0.6945198
   0.0368415   -0.3795691    0.0457072    0.4286781   -0.3590554   -0.8290442
   0.0363707   -0.3797416    0.0456027    0.2583886   -0.4086278   -0.8753620
   0.0360730   -0.3799079    0.0456385    0.1137794   -0.6448146   -0.7558229
   0.0357549   -0.3800025    0.0456818   -0.0395639   -0.6547303   -0.7548264
   0.0354831   -0.3802453    0.0460419   -0.2240919   -0.8483498   -0.4796722
   0.0342467   -0.3806706    0.0478721    0.0256102   -0.8952496   -0.4448283
