NORM_ASCII
1122 2240
   0.0191798   -0.3751359    0.0608851    0.7558371    0.5580294   -0.3425105
   0.0192444   -0.3754971    0.0596369   -0.1912641    0.9699024   -0.1506900
   0.0198437   -0.3752803    0.0597162   -0.4630384    0.8752276   -0.1399003
   0.0197191   -0.3753747    0.0592764   -0.3757974    0.9266150   -0.0126829
   0.0181637   -0.3753952    0.0607455   -0.0051371    0.9977529   -0.0668043
   0.0207655   -0.3747327    0.0600922    0.0015897    0.9885464   -0.1509086
   0.0203314   -0.3750259    0.0591377   -0.3991181    0.9135997   -0.0777191
   0.0214678   -0.3749751    0.0605840    0.6647432    0.7416770    0.0896200
   0.0214009   -0.3748806    0.0603560    0.5273941    0.8438385    0.0989549
   0.0212042   -0.3747645    0.0601072    0.3477553    0.9319842   -0.1023310
   0.0178550   -0.3754571    0.0613411   -0.1614169    0.9773265    0.1370309
   0.0189446   -0.3751928    0.0610478   -0.1904088    0.9582727   -0.2132086
   0.0180072   -0.3755231    0.0617936   -0.2749474    0.8981096    0.3432246
   0.0186973   -0.3756385    0.0629685   -0.5149290    0.8427253    0.1570419
   0.0183871   -0.3754726    0.0620612   -0.4018684    0.8542879    0.3296876
   0.0191798   -0.3751359    0.0608851    0.9442358    0.2916639   -0.1528103
   0.0210878   -0.3753445    0.0626746    0.5872292    0.7099246    0.3888045
   0.0205831   -0.3750864    0.0627977    0.4470607    0.7722880    0.4513402
   0.0192313   -0.3752512    0.0632410   -0.5463280    0.8137383    0.1983828
   0.0195550   -0.3752890    0.0639308   -0.1309964    0.9468428    0.2938175
   0.0197944   -0.3752836    0.0637965    0.2840716    0.8978449    0.3364192
   0.0215577   -0.3751806    0.0610340    0.7053836    0.6925607    0.1509758
   0.0216304   -0.3753372    0.0616924    0.7179317    0.6550177    0.2356392
   0.0191161   -0.3755695    0.0591957   -0.1113060    0.9937859    0.0007792
   0.0180856   -0.3754670    0.0603123    0.1534207    0.9772187   -0.1466481
   0.0195783   -0.3753730    0.0588294   -0.2748494    0.9539847    0.1198794
   0.0170023   -0.3750211    0.0607633    0.3681542    0.9244213    0.0995377
   0.0174152   -0.3753693    0.0612699    0.1853754    0.8954942    0.4046309
   0.0214868   -0.3750585    0.0587852    0.5012405    0.8645725   -0.0356697
   0.0214768   -0.3750244    0.0595234    0.4718354    0.8692803   -0.1473873
   0.0212769   -0.3749653    0.0586382    0.3767718    0.8995336   -0.2210935
   0.0210595   -0.3749354    0.0586041    0.0886999    0.9585658   -0.2707102
   0.0208070   -0.3749095    0.0587771   -0.1772107    0.9715961   -0.1568357
   0.0206845   -0.3750141    0.0583390   -0.0598361    0.9476506   -0.3136526
   0.0199550   -0.3752910    0.0578175   -0.0564632    0.9061463   -0.4191787
   0.0217760   -0.3752031    0.0597911    0.7211263    0.6927162   -0.0110041
   0.0220023   -0.3757454    0.0607055    0.9425618    0.3267969    0.0691456
   0.0220589   -0.3757624    0.0600180    0.9290942    0.3666102    0.0487947
   0.0218580   -0.3754832    0.0608830    0.8142507    0.5748392    0.0809676
   0.0173663   -0.3757058    0.0619196   -0.0352219    0.9057422    0.4223629
   0.0175364   -0.3759747    0.0624869   -0.1618709    0.9276083    0.3366609
   0.0179573   -0.3758556    0.0624424   -0.3195124    0.8977409    0.3032707
   0.0183321   -0.3757750    0.0627075   -0.4169903    0.8809515    0.2237042
   0.0176132   -0.3761278    0.0634692   -0.2181322    0.9727901    0.0780886
   0.0179829   -0.3760153    0.0637323   -0.3311543    0.9425238   -0.0445621
   0.0187663   -0.3756381    0.0638304   -0.4572124    0.8892984    0.0102520
   0.0189891   -0.3754918    0.0636433   -0.4787019    0.8727577    0.0955959
   0.0214954   -0.3757847    0.0627601    0.7595084    0.4065175    0.5078291
   0.0215869   -0.3757684    0.0625604    0.8225135    0.4559129    0.3400219
   0.0213411   -0.3757873    0.0629500    0.6473397    0.5333322    0.5445256
   0.0216494   -0.3757612    0.0623565    0.8583789    0.4013551    0.3195306
   0.0205365   -0.3754370    0.0634484    0.4983461    0.7562975    0.4238694
   0.0195097   -0.3754412    0.0643579   -0.0046905    0.9312963    0.3642324
   0.0199957   -0.3753848    0.0640021    0.2416438    0.9218628    0.3029476
   0.0192543   -0.3754173    0.0641052   -0.3189753    0.9245719    0.2083785
   0.0202546   -0.3754468    0.0638319    0.5405540    0.7499825    0.3812186
   0.0218574   -0.3757341    0.0617475    0.9253161    0.3291825    0.1882259
   0.0185155   -0.3755700    0.0588926   -0.0536205    0.9884582    0.1416869
   0.0179773   -0.3755510    0.0592355    0.1769521    0.9841867   -0.0080366
   0.0178974   -0.3754840    0.0598590    0.2509919    0.9648152   -0.0783247
   0.0173161   -0.3752373    0.0599702    0.3955142    0.9108215   -0.1182067
   0.0183644   -0.3755102    0.0584406   -0.0308703    0.9920999    0.1215924
   0.0167300   -0.3750873    0.0611515    0.2421156    0.8579083    0.4531813
   0.0165728   -0.3747849    0.0604729    0.3122684    0.9491410    0.0402454
   0.0169315   -0.3750133    0.0599002    0.4368537    0.8876870   -0.1455012
   0.0171669   -0.3755737    0.0616690    0.1117059    0.8480441    0.5180184
   0.0218776   -0.3753775    0.0593899    0.7708992    0.6362957   -0.0290218
   0.0217468   -0.3752277    0.0587238    0.7064433    0.6921221   -0.1480030
   0.0214392   -0.3752841    0.0580412    0.3580461    0.8030869   -0.4762924
   0.0216164   -0.3752880    0.0582815    0.6644983    0.6445560   -0.3781395
   0.0210605   -0.3753425    0.0577741    0.1186678    0.7665822   -0.6310861
   0.0195924   -0.3754418    0.0575581    0.0947841    0.5068871   -0.8567855
   0.0201102   -0.3757762    0.0574413    0.1022771    0.5548563   -0.8256355
   0.0209693   -0.3757290    0.0574602    0.1759767    0.4625288   -0.8689645
   0.0205641   -0.3758445    0.0574086    0.0082885    0.4900642   -0.8716469
   0.0193785   -0.3754318    0.0575249    0.0800723    0.7241774   -0.6849492
   0.0189108   -0.3753879    0.0576650   -0.1201183    0.9473191   -0.2969143
   0.0183939   -0.3754741    0.0582302   -0.0397321    0.9944752    0.0971623
   0.0221127   -0.3761953    0.0603205    0.9887656    0.0835244    0.1239608
   0.0219788   -0.3761914    0.0611517    0.9860886   -0.0275400    0.1639231
   0.0221552   -0.3762338    0.0592651    0.9942540    0.0802505   -0.0708442
   0.0219938   -0.3756362    0.0589957    0.9308590    0.3515552   -0.0995508
   0.0170842   -0.3760903    0.0627085    0.0169821    0.9464745    0.3223316
   0.0167006   -0.3757442    0.0620339    0.1708987    0.8541610    0.4911238
   0.0168320   -0.3761478    0.0629705    0.0931061    0.9778941    0.1872283
   0.0169509   -0.3761843    0.0635852    0.0021886    0.9994969    0.0316409
   0.0170877   -0.3761620    0.0640302   -0.1475394    0.9885992   -0.0300626
   0.0181064   -0.3759169    0.0641711   -0.3299143    0.9438056   -0.0196833
   0.0189277   -0.3755518    0.0640628   -0.4118887    0.9023068    0.1272401
   0.0184714   -0.3757802    0.0644317   -0.3341933    0.9351472    0.1175350
   0.0215812   -0.3762199    0.0627967    0.9094880    0.0477367    0.4129803
   0.0214123   -0.3762551    0.0630423    0.8301012    0.1566860    0.5351462
   0.0208328   -0.3759206    0.0637319    0.6793201    0.4856327    0.5501682
   0.0218532   -0.3761857    0.0619840    0.9576782    0.0137613    0.2875120
   0.0199511   -0.3755391    0.0644297    0.2994836    0.8370455    0.4578913
   0.0192585   -0.3756295    0.0647559   -0.1356529    0.9232713    0.3594000
   0.0204001   -0.3760022    0.0645222    0.7527947    0.4887190    0.4409693
   0.0208074   -0.3761901    0.0639556    0.7364152    0.4620036    0.4942117
   0.0201810   -0.3758494    0.0646939    0.6026497    0.6249363    0.4962540
   0.0219084   -0.3761802    0.0617790    0.9821262   -0.0598859    0.1784430
   0.0177074   -0.3754039    0.0596130    0.2827086    0.9573469   -0.0596885
   0.0177211   -0.3754706    0.0583413   -0.0562238    0.9913068   -0.1189526
   0.0171764   -0.3753964    0.0588936    0.1491583    0.9436962   -0.2952783
   0.0163218   -0.3747670    0.0606467    0.0210885    0.9848441    0.1721549
   0.0162789   -0.3749331    0.0610746    0.0838773    0.8721073    0.4820720
   0.0168024   -0.3750799    0.0594590    0.1522557    0.9187707   -0.3642508
   0.0164334   -0.3747934    0.0600266   -0.0314343    0.9499080   -0.3109448
   0.0218292   -0.3754383    0.0585342    0.8522102    0.4230055   -0.3079027
   0.0215267   -0.3755847    0.0578574    0.7094018    0.4271550   -0.5606137
   0.0212786   -0.3753745    0.0578094    0.4018165    0.6230623   -0.6710714
   0.0211401   -0.3755951    0.0575872    0.3372772    0.4352914   -0.8347248
   0.0202064   -0.3761268    0.0572615    0.0488803    0.4391433   -0.8970863
   0.0200777   -0.3764563    0.0571024    0.0827935    0.3587113   -0.9297696
   0.0199038   -0.3766240    0.0570297    0.0261330    0.3616863   -0.9319335
   0.0194015   -0.3763799    0.0571538    0.0466805    0.3615032   -0.9312016
   0.0208803   -0.3762268    0.0572497    0.2324175    0.2900473   -0.9283613
   0.0216213   -0.3759955    0.0577546    0.6435642    0.2224424   -0.7323555
   0.0191682   -0.3754439    0.0574939    0.0168487    0.6418678   -0.7666302
   0.0187634   -0.3755564    0.0574390   -0.2025437    0.6526419   -0.7300921
   0.0180049   -0.3754726    0.0579587   -0.2302479    0.9368080   -0.2633945
   0.0182824   -0.3755413    0.0576870   -0.2781466    0.7313900   -0.6226581
   0.0220422   -0.3771256    0.0605728    0.9511922   -0.0726290    0.2999307
   0.0221650   -0.3766506    0.0601403    0.9957274   -0.0595960    0.0705357
   0.0216494   -0.3781686    0.0612081    0.9010347   -0.1008155    0.4218682
   0.0218722   -0.3766720    0.0613742    0.9440415   -0.2092123    0.2549823
   0.0219286   -0.3758688    0.0583592    0.9074095    0.2552714   -0.3338330
   0.0219507   -0.3763452    0.0581753    0.9236138    0.0979287   -0.3706044
   0.0221178   -0.3767274    0.0588597    0.9924892   -0.0541534   -0.1096930
   0.0220018   -0.3775317    0.0597370    0.9823163   -0.1872178    0.0020568
   0.0164129   -0.3759284    0.0626386    0.1766035    0.9125825    0.3687877
   0.0162430   -0.3753457    0.0617301    0.0250094    0.8435017    0.5365440
   0.0157803   -0.3755382    0.0620962   -0.1329266    0.8200254    0.5566766
   0.0159372   -0.3759377    0.0628834    0.0651119    0.9351132    0.3483156
   0.0160172   -0.3761066    0.0638658   -0.0769450    0.9714213    0.2245442
   0.0158642   -0.3760366    0.0634128   -0.1571157    0.9648827    0.2105137
   0.0164189   -0.3761824    0.0641433   -0.1352637    0.9651526    0.2240183
   0.0171867   -0.3761276    0.0646820   -0.1153162    0.9895557    0.0864970
   0.0177816   -0.3760930    0.0649830   -0.2304395    0.9204060    0.3158330
   0.0182117   -0.3759187    0.0648259   -0.2927343    0.9450132    0.1457966
   0.0187975   -0.3758320    0.0651224   -0.0156401    0.9352097    0.3537487
   0.0215012   -0.3771757    0.0626223    0.8980846   -0.1479511    0.4141915
   0.0217016   -0.3766679    0.0624129    0.9427014   -0.1446140    0.3006675
   0.0217830   -0.3762903    0.0621920    0.9649877   -0.1269791    0.2295104
   0.0208949   -0.3766970    0.0639957    0.8967294   -0.0351143    0.4411840
   0.0204562   -0.3764372    0.0647667    0.8233735    0.2115294    0.5266036
   0.0217112   -0.3771561    0.0618021    0.9651622   -0.2349485    0.1151569
   0.0194449   -0.3758938    0.0652238    0.1474178    0.8348958    0.5302989
   0.0199267   -0.3760197    0.0650903    0.4835416    0.5707319    0.6636661
   0.0201962   -0.3761437    0.0649247    0.6860038    0.4064306    0.6035005
   0.0174288   -0.3754224    0.0587199   -0.0855798    0.9697862   -0.2284530
   0.0168280   -0.3756291    0.0586406   -0.3010729    0.7856215   -0.5405127
   0.0178545   -0.3756574    0.0577671   -0.4589857    0.6625403   -0.5919228
   0.0160882   -0.3748511    0.0608287   -0.4429524    0.8720989    0.2079341
   0.0161872   -0.3748033    0.0602024   -0.4203708    0.8803600   -0.2196695
   0.0163418   -0.3750641    0.0595885   -0.3153327    0.7847443   -0.5336120
   0.0213445   -0.3756145    0.0576841    0.5144007    0.3773679   -0.7700554
   0.0207552   -0.3766376    0.0571591    0.2590689    0.2313244   -0.9377485
   0.0205815   -0.3767808    0.0570567    0.2513978    0.2075901   -0.9453600
   0.0197838   -0.3770114    0.0568812   -0.0079320    0.2234490   -0.9746833
   0.0192589   -0.3766866    0.0570488   -0.0811353    0.2666101   -0.9603833
   0.0188493   -0.3758667    0.0572744   -0.0573092    0.3262450   -0.9435464
   0.0211573   -0.3766078    0.0573197    0.4954992    0.0902350   -0.8639086
   0.0217023   -0.3764352    0.0577596    0.7363690    0.0452690   -0.6750640
   0.0182011   -0.3759876    0.0573771   -0.3150675    0.2800199   -0.9068194
   0.0179317   -0.3758617    0.0575428   -0.4464394    0.4528718   -0.7717506
   0.0219886   -0.3776008    0.0605903    0.9677018   -0.1584427    0.1960847
   0.0214654   -0.3790899    0.0614426    0.9379166   -0.1551995    0.3102024
   0.0220994   -0.3772810    0.0601640    0.9819915   -0.1886743    0.0097339
   0.0215698   -0.3781394    0.0614074    0.9668266   -0.0315004    0.2534837
   0.0215576   -0.3776824    0.0613809    0.9356696   -0.1527342    0.3181112
   0.0218644   -0.3768405    0.0579762    0.8957282   -0.0330469   -0.4433723
   0.0219769   -0.3772542    0.0583164    0.9733711   -0.0640773   -0.2200973
   0.0220523   -0.3772032    0.0590883    0.9909314   -0.1237372    0.0523841
   0.0220720   -0.3772007    0.0588782    0.9930944   -0.1126401   -0.0327996
   0.0217901   -0.3783630    0.0606008    0.9636686   -0.2645510    0.0368185
   0.0216878   -0.3785857    0.0601715    0.9703373   -0.2376887    0.0441538
   0.0219412   -0.3781695    0.0586974    0.9886618   -0.1407618   -0.0522875
   0.0216694   -0.3790870    0.0595569    0.9775688   -0.1783895    0.1119664
   0.0216920   -0.3794101    0.0585139    0.9797224   -0.1589953   -0.1219204
   0.0157892   -0.3753820    0.0618766   -0.1752080    0.8703048    0.4602953
   0.0158734   -0.3750416    0.0610195   -0.4982845    0.8365705    0.2277332
   0.0153911   -0.3757430    0.0620484   -0.6171871    0.7224489    0.3116853
   0.0155926   -0.3754724    0.0618516   -0.5497900    0.7610819    0.3442170
   0.0156374   -0.3761589    0.0635980   -0.5197421    0.8008361    0.2975394
   0.0159996   -0.3762128    0.0640816   -0.3342907    0.8198129    0.4649264
   0.0153327   -0.3762297    0.0629177   -0.7915052    0.5454935    0.2756017
   0.0163729   -0.3765369    0.0647942   -0.5180144    0.5876294    0.6215728
   0.0169540   -0.3762159    0.0648649   -0.3562776    0.8155478    0.4560133
   0.0177721   -0.3762453    0.0652026   -0.3331212    0.8142860    0.4753616
   0.0171476   -0.3763139    0.0651122   -0.3972117    0.6148160    0.6813400
   0.0185702   -0.3759522    0.0653073   -0.2335164    0.8600588    0.4536176
   0.0190051   -0.3758932    0.0652481    0.2261670    0.8910039    0.3936502
   0.0187823   -0.3759501    0.0653395    0.8180125    0.5003615    0.2837144
   0.0187823   -0.3759501    0.0653395    0.9477924    0.2803659    0.1519356
   0.0210558   -0.3777197    0.0634363    0.8931530   -0.1516238    0.4234241
   0.0212646   -0.3781534    0.0628520    0.9104789   -0.2203635    0.3499545
   0.0213332   -0.3786012    0.0622477    0.9530629   -0.2005397    0.2268366
   0.0214765   -0.3781337    0.0620319    0.9758079   -0.1597055    0.1493086
   0.0206965   -0.3771900    0.0644180    0.9009770   -0.0810440    0.4262305
   0.0203768   -0.3769087    0.0649933    0.7838605    0.0294709    0.6202372
   0.0199770   -0.3765424    0.0653386    0.6549432    0.2651984    0.7076151
   0.0205836   -0.3773313    0.0646214    0.8619856   -0.1033221    0.4962915
   0.0215102   -0.3777758    0.0615918    0.9897221   -0.1190326    0.0792551
   0.0194475   -0.3761159    0.0654488    0.3361012    0.5898134    0.7342726
   0.0189930   -0.3759418    0.0653706    0.0415773    0.8663658    0.4976762
   0.0197280   -0.3765106    0.0655123    0.5081963    0.3383545    0.7919929
   0.0165171   -0.3754709    0.0590107   -0.4128887    0.6177950   -0.6692177
   0.0166905   -0.3759436    0.0585157   -0.5350875    0.4095751   -0.7388705
   0.0172145   -0.3760179    0.0580808   -0.5832731    0.3714578   -0.7223653
   0.0157807   -0.3751140    0.0603705   -0.6528223    0.7365996   -0.1767596
   0.0154159   -0.3754590    0.0603340   -0.7496289    0.6446750   -0.1498353
   0.0160945   -0.3750801    0.0597777   -0.5383071    0.7266761   -0.4268105
   0.0162614   -0.3754268    0.0591825   -0.4564321    0.6402200   -0.6178901
   0.0210426   -0.3771037    0.0572584    0.4567700   -0.0121590   -0.8895017
   0.0202000   -0.3773571    0.0569006    0.2622037    0.0196399   -0.9648127
   0.0198503   -0.3773357    0.0568472    0.0944425    0.0268122   -0.9951692
   0.0196661   -0.3775071    0.0568386   -0.0614954    0.0033068   -0.9981019
   0.0191489   -0.3771842    0.0569611   -0.2415375    0.1293545   -0.9617313
   0.0213896   -0.3774577    0.0575115    0.5979352   -0.0594508   -0.7993367
   0.0216799   -0.3773649    0.0577633    0.7461835   -0.0841709   -0.6603979
   0.0180654   -0.3764306    0.0573803   -0.3767466    0.0336444   -0.9257052
   0.0187014   -0.3777623    0.0571219   -0.4137599   -0.0053796   -0.9103701
   0.0177799   -0.3762123    0.0575386   -0.5165497    0.1848719   -0.8360615
   0.0214125   -0.3786455    0.0618365    0.9452716   -0.1873284    0.2671511
   0.0213309   -0.3791078    0.0618490    0.9540098   -0.1648429    0.2503841
   0.0214180   -0.3786217    0.0618362    0.9696227   -0.1506403    0.1927155
   0.0213613   -0.3799784    0.0610487    0.9704361   -0.1936122    0.1441117
   0.0217683   -0.3782475    0.0580760    0.8709114   -0.1394798   -0.4712310
   0.0219220   -0.3777344    0.0582458    0.9452246   -0.1175362   -0.3045253
   0.0216133   -0.3791230    0.0599233    0.9811513   -0.1583921    0.1106982
   0.0215926   -0.3802718    0.0587573    0.9947101   -0.0798649    0.0646021
   0.0215811   -0.3801341    0.0583229    0.9310816   -0.0630355   -0.3593237
   0.0215740   -0.3792255    0.0580604    0.8380211   -0.1353440   -0.5285855
   0.0154341   -0.3755767    0.0616206   -0.7346642    0.6479802    0.2009730
   0.0152917   -0.3755670    0.0611727   -0.7626071    0.6389108    0.1011106
   0.0151785   -0.3763601    0.0626884   -0.8697214    0.4056482    0.2811302
   0.0150896   -0.3762152    0.0620287   -0.8648326    0.4635778    0.1927697
   0.0156240   -0.3762891    0.0638159   -0.6375488    0.5789748    0.5082517
   0.0154603   -0.3763634    0.0635822   -0.8334541    0.4329633    0.3433614
   0.0151963   -0.3768768    0.0631442   -0.9272268    0.1699833    0.3337007
   0.0153290   -0.3768306    0.0635879   -0.9304993    0.1340242    0.3408937
   0.0165688   -0.3765843    0.0649713   -0.5513617    0.4510466    0.7018242
   0.0162481   -0.3771374    0.0649049   -0.7217520    0.1454983    0.6766862
   0.0160117   -0.3766956    0.0645354   -0.6777489    0.3266603    0.6587485
   0.0167580   -0.3765165    0.0650638   -0.4464450    0.5285615    0.7220177
   0.0175607   -0.3766641    0.0656187   -0.4532926    0.5839931    0.6734077
   0.0181307   -0.3762771    0.0656845   -0.3925703    0.6634313    0.6369831
   0.0183303   -0.3762048    0.0657108   -0.2878642    0.7724115    0.5661402
   0.0185652   -0.3760068    0.0653978   -0.0589852    0.9041112    0.4232065
   0.0166876   -0.3777508    0.0655452   -0.5795203    0.2671296    0.7699337
   0.0170515   -0.3776081    0.0658052   -0.6116498    0.3092542    0.7281802
   0.0172674   -0.3772713    0.0658201   -0.5039346    0.3727421    0.7791747
   0.0187823   -0.3759501    0.0653395    0.5718276    0.7531063    0.3253368
   0.0205149   -0.3775748    0.0646239    0.8390489   -0.2494015    0.4835244
   0.0207450   -0.3788937    0.0634518    0.8574848   -0.2412206    0.4544585
   0.0213269   -0.3786269    0.0622484    0.9619621   -0.1869856    0.1991617
   0.0207616   -0.3796748    0.0629354    0.8906293   -0.1853716    0.4152311
   0.0212554   -0.3791186    0.0620508    0.9233591   -0.2064287    0.3237209
   0.0213730   -0.3786253    0.0620421    0.9888731   -0.1049653    0.1054150
   0.0198134   -0.3770375    0.0655863    0.6217640    0.0603171    0.7808786
   0.0201326   -0.3774294    0.0651968    0.7729394   -0.1624426    0.6133327
   0.0192741   -0.3767123    0.0658375    0.3999462    0.2863841    0.8706476
   0.0190040   -0.3764187    0.0658237    0.3019904    0.4275359    0.8520650
   0.0189797   -0.3760721    0.0655883    0.1360688    0.7585460    0.6372544
   0.0162410   -0.3760583    0.0587211   -0.5125981    0.3782661   -0.7708164
   0.0168058   -0.3763149    0.0582484   -0.5827202    0.2316302   -0.7789638
   0.0161257   -0.3765556    0.0586640   -0.5984390    0.0688206   -0.7982071
   0.0159107   -0.3752445    0.0597588   -0.5925176    0.6808896   -0.4304791
   0.0152704   -0.3757909    0.0602737   -0.8677184    0.4117065   -0.2785006
   0.0155945   -0.3757374    0.0595243   -0.7503620    0.4739402   -0.4608010
   0.0151468   -0.3757495    0.0609476   -0.8790918    0.4648197   -0.1055471
   0.0160845   -0.3756193    0.0591531   -0.4425043    0.6178264   -0.6499849
   0.0205450   -0.3777159    0.0570187    0.4349942   -0.0728805   -0.8974790
   0.0204178   -0.3782120    0.0570294    0.3010450   -0.1596719   -0.9401472
   0.0201749   -0.3779867    0.0569307    0.1738398   -0.1000946   -0.9796738
   0.0190476   -0.3776735    0.0569568   -0.2877712   -0.0198306   -0.9574939
   0.0196081   -0.3784425    0.0569245   -0.0167669   -0.1305283   -0.9913028
   0.0212653   -0.3784135    0.0575443    0.5782577   -0.1302515   -0.8053897
   0.0214733   -0.3788050    0.0578093    0.7136983   -0.1523421   -0.6836861
   0.0180911   -0.3774544    0.0574390   -0.4642730   -0.1350726   -0.8753319
   0.0178651   -0.3765921    0.0574554   -0.4321186   -0.0007607   -0.9018165
   0.0189621   -0.3786149    0.0570687   -0.4024469   -0.1468939   -0.9035810
   0.0174184   -0.3767038    0.0577228   -0.5692290    0.0309098   -0.8215978
   0.0213730   -0.3786253    0.0620421    0.9936182   -0.0774211    0.0820295
   0.0209290   -0.3801125    0.0624805    0.9361427   -0.1252850    0.3285429
   0.0213730   -0.3786253    0.0620421    0.9899136   -0.0886870    0.1104794
   0.0211758   -0.3813614    0.0610950    0.9826745   -0.0807679    0.1668155
   0.0213053   -0.3804696    0.0606407    0.9850930   -0.1082796    0.1336689
   0.0215436   -0.3805745    0.0589795    0.9846421   -0.0620762    0.1631764
   0.0216134   -0.3814977    0.0586132    0.9991191    0.0349284    0.0232615
   0.0211271   -0.3802927    0.0576913    0.6151048   -0.1222902   -0.7789038
   0.0212715   -0.3807040    0.0578807    0.6168474   -0.1247685   -0.7771307
   0.0214098   -0.3815760    0.0581611    0.8000286   -0.0890908   -0.5933103
   0.0210256   -0.3796392    0.0575736    0.5174407   -0.1502482   -0.8424254
   0.0150999   -0.3758935    0.0613738   -0.8454446    0.4997091    0.1884522
   0.0149599   -0.3761042    0.0611509   -0.9297890    0.3644055    0.0519722
   0.0149235   -0.3767140    0.0622426   -0.9408968    0.2615608    0.2151723
   0.0149120   -0.3766530    0.0620250   -0.9563892    0.2662505    0.1201268
   0.0156318   -0.3765397    0.0640439   -0.7797028    0.3043293    0.5472176
   0.0153534   -0.3779210    0.0634368   -0.9377356   -0.1367210    0.3193107
   0.0149118   -0.3770656    0.0624727   -0.9478258    0.0302015    0.3173548
   0.0155552   -0.3773690    0.0641223   -0.8615931   -0.0387870    0.5061155
   0.0155298   -0.3769177    0.0640485   -0.8358973    0.1287556    0.5335708
   0.0161047   -0.3781049    0.0648374   -0.8504129   -0.0797408    0.5200378
   0.0165254   -0.3779579    0.0654468   -0.7147401    0.0768059    0.6951600
   0.0157025   -0.3771566    0.0642999   -0.7508203    0.1089461    0.6514596
   0.0157541   -0.3777644    0.0643408   -0.8178751   -0.0606564    0.5721897
   0.0177875   -0.3771146    0.0660555   -0.2998234    0.2909092    0.9085581
   0.0179489   -0.3766599    0.0658906   -0.3161657    0.4675495    0.8254918
   0.0185558   -0.3764459    0.0659268   -0.1295270    0.4789805    0.8682168
   0.0185373   -0.3761746    0.0657403   -0.0831487    0.7411024    0.6662233
   0.0187606   -0.3760321    0.0655534   -0.0149271    0.8451417    0.5343339
   0.0172601   -0.3777275    0.0659875   -0.5231623    0.1551381    0.8379937
   0.0176074   -0.3776245    0.0661032   -0.2779891    0.1447963    0.9496084
   0.0203979   -0.3787943    0.0640953    0.8396370   -0.2426021    0.4859568
   0.0203029   -0.3777832    0.0648158    0.8103235   -0.2545180    0.5278223
   0.0204386   -0.3792578    0.0638507    0.8589923   -0.2020064    0.4704527
   0.0208836   -0.3805859    0.0624990    0.9189811   -0.0995067    0.3815393
   0.0200054   -0.3807525    0.0640782    0.8864784   -0.1552945    0.4359354
   0.0197841   -0.3779734    0.0655055    0.7495503   -0.1575838    0.6429166
   0.0194364   -0.3775910    0.0658457    0.5275934   -0.0494953    0.8480539
   0.0191193   -0.3772083    0.0660101    0.3612843    0.0972618    0.9273693
   0.0186092   -0.3768848    0.0660917    0.0765970    0.2704823    0.9596730
   0.0187707   -0.3763892    0.0658813    0.1424591    0.5318013    0.8348010
   0.0157822   -0.3766353    0.0589625   -0.7013184    0.0260252   -0.7123730
   0.0156619   -0.3762000    0.0591333   -0.7006119    0.1367637   -0.7003132
   0.0159626   -0.3759462    0.0589525   -0.5573723    0.4164247   -0.7182803
   0.0167111   -0.3768745    0.0582637   -0.5913955   -0.0467650   -0.8050245
   0.0158342   -0.3770813    0.0589939   -0.6995605   -0.1930166   -0.6880115
   0.0162861   -0.3774338    0.0586841   -0.6603786   -0.2636529   -0.7031268
   0.0158304   -0.3755954    0.0593396   -0.5773150    0.5834480   -0.5712231
   0.0154439   -0.3760205    0.0595169   -0.7761899    0.3658792   -0.5134799
   0.0151997   -0.3762508    0.0599180   -0.9168381    0.2021314   -0.3443120
   0.0151068   -0.3761264    0.0603232   -0.9263129    0.2854253   -0.2459202
   0.0157236   -0.3759984    0.0591321   -0.7134532    0.3502968   -0.6068580
   0.0157656   -0.3756992    0.0593352   -0.6623694    0.4691538   -0.5840903
   0.0155157   -0.3762307    0.0593260   -0.0257666    0.3934081   -0.9190028
   0.0149090   -0.3763193    0.0609423   -0.9718911    0.2065213   -0.1130335
   0.0207122   -0.3788479    0.0572707    0.4081888   -0.1615657   -0.8984867
   0.0197941   -0.3797608    0.0572691    0.1701295   -0.2176085   -0.9610944
   0.0194704   -0.3789393    0.0569963   -0.0975284   -0.2117249   -0.9724509
   0.0211143   -0.3789177    0.0575414    0.5703148   -0.1326168   -0.8106502
   0.0180967   -0.3779090    0.0575358   -0.5553676   -0.1966238   -0.8080259
   0.0173319   -0.3776438    0.0578953   -0.5754541   -0.2298560   -0.7848687
   0.0176945   -0.3770954    0.0575730   -0.5280181   -0.1049870   -0.8427186
   0.0179201   -0.3779530    0.0576527   -0.4849615   -0.1991492   -0.8515585
   0.0189161   -0.3790826    0.0572252   -0.5211506   -0.2009002   -0.8294824
   0.0210480   -0.3819627    0.0617459    0.9473370   -0.0505717    0.3162202
   0.0211357   -0.3821510    0.0609180    0.9849393   -0.0320202    0.1699097
   0.0211872   -0.3822412    0.0607179    0.9820205    0.0086149    0.1885777
   0.0213948   -0.3822034    0.0594697    0.9537635    0.0506386    0.2962616
   0.0216430   -0.3819492    0.0586420    0.9572174   -0.0303900   -0.2877697
   0.0216041   -0.3824008    0.0590860    0.9715945    0.0111121    0.2363908
   0.0205457   -0.3805454    0.0575498    0.2395967   -0.1982314   -0.9504198
   0.0211349   -0.3812047    0.0578865    0.4685663   -0.1646036   -0.8679581
   0.0214195   -0.3824859    0.0583693    0.6758019   -0.1504498   -0.7215654
   0.0208042   -0.3794718    0.0574135    0.3723558   -0.1697866   -0.9124273
   0.0202688   -0.3800831    0.0573917    0.2112751   -0.2194022   -0.9524839
   0.0148515   -0.3767819    0.0612519   -0.9951417    0.0981263    0.0080091
   0.0148505   -0.3771947    0.0622576   -0.9934796    0.0286474    0.1103525
   0.0155028   -0.3778573    0.0638818   -0.8892126   -0.1937058    0.4144623
   0.0149136   -0.3776371    0.0622908   -0.9640352   -0.2367471    0.1207763
   0.0151726   -0.3783701    0.0623690   -0.9492288   -0.2938921    0.1122150
   0.0153459   -0.3788863    0.0626356   -0.9397435   -0.2663282    0.2143627
   0.0164384   -0.3784490    0.0653323   -0.7639148   -0.0634569    0.6421896
   0.0165280   -0.3788843    0.0653690   -0.7702005   -0.1529169    0.6191992
   0.0159105   -0.3791253    0.0639602   -0.8921262   -0.2164232    0.3965752
   0.0169763   -0.3782762    0.0658296   -0.6082309   -0.0318871    0.7931194
   0.0180928   -0.3774864    0.0661692   -0.0734971    0.0800927    0.9940741
   0.0179230   -0.3779463    0.0661679   -0.0640574    0.0067998    0.9979230
   0.0173307   -0.3781660    0.0660536   -0.3770310   -0.0158609    0.9260648
   0.0177407   -0.3781187    0.0661496   -0.1129312   -0.0354851    0.9929690
   0.0202946   -0.3785489    0.0644300    0.8528503   -0.2290960    0.4692136
   0.0202228   -0.3791543    0.0642387    0.8719458   -0.1889738    0.4516630
   0.0205816   -0.3810122    0.0629023    0.8477111   -0.1677672    0.5032296
   0.0201904   -0.3816194    0.0633011    0.8952732   -0.1149385    0.4304360
   0.0198221   -0.3812440    0.0645028    0.9387070   -0.0150249    0.3443884
   0.0203324   -0.3811634    0.0632479    0.8319732   -0.2137366    0.5119935
   0.0198269   -0.3807556    0.0644775    0.9188403   -0.0758788    0.3872658
   0.0191753   -0.3785839    0.0659089    0.4975485   -0.1177011    0.8594137
   0.0195276   -0.3789659    0.0655408    0.7154862   -0.1354714    0.6853664
   0.0198932   -0.3788895    0.0650261    0.8519705   -0.1618848    0.4979353
   0.0187641   -0.3777628    0.0661436    0.2102548   -0.0405042    0.9768072
   0.0184703   -0.3773823    0.0661717    0.0984780    0.0757581    0.9922514
   0.0156207   -0.3766316    0.0591503   -0.6355720    0.0487673   -0.7704998
   0.0154567   -0.3767079    0.0593427   -0.8040727   -0.0257590   -0.5939727
   0.0152417   -0.3772084    0.0597630   -0.8222803   -0.1681964   -0.5436590
   0.0166518   -0.3778011    0.0585175   -0.6136502   -0.3080452   -0.7270087
   0.0167794   -0.3786751    0.0587966   -0.6774807   -0.3002145   -0.6714843
   0.0160935   -0.3781403    0.0593028   -0.6259137   -0.3482157   -0.6978380
   0.0159887   -0.3779481    0.0592768   -0.6091012   -0.3795752   -0.6963609
   0.0164007   -0.3784830    0.0591547   -0.7039940   -0.3067068   -0.6405649
   0.0155397   -0.3778039    0.0596269   -0.7007576   -0.3396432   -0.6273606
   0.0153215   -0.3776472    0.0597983   -0.8322411   -0.2493303   -0.4951859
   0.0152604   -0.3763951    0.0597219   -0.9091035    0.1088296   -0.4021032
   0.0153771   -0.3762598    0.0595194   -0.7906950    0.1543876   -0.5924238
   0.0155157   -0.3762307    0.0593260    0.9657757    0.0968298   -0.2406269
   0.0149980   -0.3767238    0.0603389   -0.9556800    0.0510230   -0.2899524
   0.0151462   -0.3771687    0.0599591   -0.9297209   -0.0629919   -0.3628376
   0.0149026   -0.3765854    0.0607428   -0.9759472    0.0981979   -0.1946388
   0.0155157   -0.3762307    0.0593260    0.7584877    0.0828222   -0.6464031
   0.0148644   -0.3772532    0.0609856   -0.9889904   -0.0970866   -0.1116792
   0.0192364   -0.3803720    0.0573766   -0.1400142   -0.2598904   -0.9554334
   0.0189428   -0.3799893    0.0574044   -0.4544584   -0.2302692   -0.8604903
   0.0184210   -0.3799232    0.0578338   -0.5854634   -0.1790981   -0.7906683
   0.0173421   -0.3794557    0.0585347   -0.6594222   -0.2153968   -0.7202545
   0.0170205   -0.3790748    0.0587242   -0.6751632   -0.2719848   -0.6856960
   0.0168976   -0.3781959    0.0584881   -0.6254650   -0.3003313   -0.7201352
   0.0187021   -0.3800480    0.0575992   -0.5963783   -0.2184402   -0.7724097
   0.0210098   -0.3828932    0.0617906    0.9651913    0.0037224    0.2615183
   0.0205685   -0.3819582    0.0627378    0.8339662   -0.0718004    0.5471244
   0.0207587   -0.3826456    0.0623776    0.8613807   -0.0241251    0.5073866
   0.0211215   -0.3838147    0.0612179    0.9894949    0.0079987    0.1443461
   0.0214613   -0.3824282    0.0593265    0.9353517    0.0421102    0.3512035
   0.0214172   -0.3847348    0.0596090    0.9793703   -0.0525056    0.1951330
   0.0211742   -0.3847617    0.0604253    0.9875688   -0.0366469    0.1528558
   0.0215876   -0.3824288    0.0585952    0.9450984   -0.0671638   -0.3198094
   0.0215535   -0.3837287    0.0589370    0.9813750   -0.1395073   -0.1320635
   0.0216240   -0.3828677    0.0588573    0.9913368   -0.0554638   -0.1190596
   0.0204927   -0.3816754    0.0578148    0.1741419   -0.2237970   -0.9589523
   0.0198448   -0.3815726    0.0576746    0.1141073   -0.2792900   -0.9534027
   0.0208962   -0.3815532    0.0578697    0.2704133   -0.2043449   -0.9408081
   0.0195784   -0.3811912    0.0575447    0.2384320   -0.2368840   -0.9418260
   0.0211179   -0.3816670    0.0579682    0.4301140   -0.1995240   -0.8804500
   0.0215133   -0.3833676    0.0586986    0.8576603   -0.1376413   -0.4954530
   0.0213215   -0.3832000    0.0584478    0.6125486   -0.1576814   -0.7745456
   0.0208622   -0.3827915    0.0581436    0.3174496   -0.1849184   -0.9300704
   0.0152344   -0.3785204    0.0621734   -0.9498903   -0.3111628   -0.0297680
   0.0152658   -0.3785317    0.0609016   -0.9512111   -0.3057078   -0.0417147
   0.0157039   -0.3796081    0.0631545   -0.9153163   -0.2275535    0.3322883
   0.0158286   -0.3806109    0.0623755   -0.9657023   -0.2477926    0.0775750
   0.0171059   -0.3786986    0.0658723   -0.4912264   -0.1692376    0.8544327
   0.0162870   -0.3794491    0.0646520   -0.8780649   -0.2228001    0.4235117
   0.0166786   -0.3793031    0.0654139   -0.6788054   -0.2415789    0.6934427
   0.0169179   -0.3790853    0.0656513   -0.5142917   -0.2264958    0.8271661
   0.0186761   -0.3784128    0.0660941    0.1330722   -0.1320264    0.9822733
   0.0176100   -0.3785480    0.0661076   -0.1585252   -0.1377339    0.9777009
   0.0197214   -0.3798599    0.0650519    0.8777044   -0.1380476    0.4588877
   0.0202720   -0.3818840    0.0631148    0.8122766   -0.1090973    0.5729786
   0.0201994   -0.3826918    0.0631476    0.9114486   -0.0093711    0.4113072
   0.0200623   -0.3830596    0.0637848    0.9558738   -0.0478770    0.2898500
   0.0196437   -0.3813367    0.0649070    0.8035829   -0.0630690    0.5918419
   0.0191363   -0.3794347    0.0657926    0.4524244   -0.1627087    0.8768341
   0.0194909   -0.3798456    0.0654426    0.7605388   -0.1389085    0.6342595
   0.0153454   -0.3766798    0.0595373   -0.8846675    0.0089898   -0.4661357
   0.0163103   -0.3796848    0.0597163   -0.7341623   -0.2808621   -0.6181603
   0.0157732   -0.3784504    0.0596965   -0.6904707   -0.3332631   -0.6420171
   0.0152974   -0.3782507    0.0602528   -0.8288280   -0.3693736   -0.4202467
   0.0150074   -0.3776941    0.0606050   -0.9474652   -0.2270278   -0.2253176
   0.0151710   -0.3781186    0.0604396   -0.9169322   -0.3145521   -0.2455450
   0.0194028   -0.3815078    0.0576412   -0.1102192   -0.2459787   -0.9629882
   0.0182127   -0.3801624    0.0580374   -0.5523654   -0.1463606   -0.8206528
   0.0182143   -0.3819935    0.0583395   -0.6345011   -0.1366312   -0.7607498
   0.0168947   -0.3800089    0.0592021   -0.7369981   -0.1845399   -0.6502144
   0.0208538   -0.3833791    0.0622182    0.8859705    0.0062907    0.4636989
   0.0204456   -0.3825389    0.0628157    0.8019332   -0.0679997    0.5935312
   0.0203924   -0.3834788    0.0627925    0.8556913   -0.0077049    0.5174292
   0.0211516   -0.3856591    0.0611083    0.9967548    0.0198918    0.0780007
   0.0210600   -0.3842715    0.0616589    0.9603579    0.0120302    0.2785104
   0.0211517   -0.3847488    0.0608465    0.9993702   -0.0149704    0.0321743
   0.0213110   -0.3856101    0.0598524    0.9671560   -0.0503318    0.2491506
   0.0212701   -0.3866193    0.0596876    0.9807796   -0.0575509    0.1864386
   0.0211369   -0.3852333    0.0604450    0.9939734   -0.0166343    0.1083525
   0.0213747   -0.3861387    0.0594650    0.9874761   -0.1533106   -0.0372390
   0.0214488   -0.3852083    0.0592130    0.9940717   -0.0607237   -0.0901895
   0.0214171   -0.3839612    0.0587157    0.8421460   -0.1436417   -0.5197665
   0.0198606   -0.3817018    0.0577205    0.3443422   -0.2465589   -0.9058903
   0.0199066   -0.3820123    0.0577899    0.1188468   -0.1868470   -0.9751736
   0.0199744   -0.3824517    0.0578724    0.1167297   -0.1967151   -0.9734872
   0.0196363   -0.3816301    0.0576833    0.8400425   -0.1696893   -0.5153000
   0.0196363   -0.3816301    0.0576833    0.9491726   -0.0942443   -0.3003153
   0.0211305   -0.3839485    0.0584588    0.5464143   -0.1432697   -0.8251698
   0.0208457   -0.3840331    0.0583184    0.3614143   -0.1274830   -0.9236491
   0.0198340   -0.3829475    0.0579604    0.1074920   -0.1789103   -0.9779757
   0.0199005   -0.3833868    0.0580489    0.1563497   -0.1313632   -0.9789272
   0.0153625   -0.3789120    0.0620012   -0.9555801   -0.2923901   -0.0370776
   0.0153799   -0.3789487    0.0611542   -0.9241675   -0.3578508   -0.1336307
   0.0162797   -0.3799278    0.0643231   -0.8988231   -0.1836016    0.3980043
   0.0163013   -0.3813354    0.0637630   -0.9260533   -0.1893008    0.3264821
   0.0161976   -0.3804340    0.0639117   -0.9059045   -0.1680245    0.3887220
   0.0160106   -0.3814703    0.0626620   -0.9771262   -0.1975236    0.0787964
   0.0158624   -0.3806330    0.0617430   -0.9481745   -0.2697905   -0.1678636
   0.0178008   -0.3794262    0.0659524   -0.1765379   -0.2255135    0.9581117
   0.0167069   -0.3799072    0.0652379   -0.6980475   -0.2290811    0.6784184
   0.0177036   -0.3799231    0.0657901   -0.4106295   -0.2538436    0.8757550
   0.0181379   -0.3789824    0.0660436    0.0563829   -0.1782774    0.9823635
   0.0186561   -0.3793187    0.0659267    0.1584521   -0.2037553    0.9661142
   0.0193661   -0.3803506    0.0654506    0.6496969   -0.1830136    0.7378346
   0.0196679   -0.3835878    0.0646739    0.8529839   -0.1136260    0.5094190
   0.0199752   -0.3830631    0.0641978    0.9290591   -0.0921664    0.3582661
   0.0200566   -0.3844635    0.0634336    0.9273703   -0.0032702    0.3741305
   0.0198542   -0.3831644    0.0643975    0.8259052   -0.0289011    0.5630678
   0.0192186   -0.3807254    0.0654483    0.4462439   -0.1829313    0.8760151
   0.0190086   -0.3823541    0.0652913    0.2526840   -0.1797814    0.9506994
   0.0193089   -0.3832058    0.0650805    0.5694936   -0.0907459    0.8169713
   0.0190861   -0.3832629    0.0651722    0.2463146   -0.1148763    0.9623578
   0.0191029   -0.3802625    0.0656186    0.3065847   -0.2121555    0.9278986
   0.0163151   -0.3805882    0.0601060   -0.8457097   -0.2086421   -0.4911656
   0.0161252   -0.3801711    0.0602679   -0.8947973   -0.2366480   -0.3785967
   0.0156626   -0.3789200    0.0601312   -0.8004270   -0.3689126   -0.4724618
   0.0160182   -0.3797419    0.0602104   -0.8472607   -0.3514375   -0.3982977
   0.0157529   -0.3793460    0.0603799   -0.8696977   -0.3846889   -0.3092577
   0.0194302   -0.3816887    0.0576769   -0.0194432   -0.2044639   -0.9786810
   0.0196363   -0.3816301    0.0576833    0.7380821   -0.1337868   -0.6613138
   0.0190627   -0.3822418    0.0578834   -0.3225547   -0.1674263   -0.9316259
   0.0186090   -0.3823578    0.0581121   -0.5248161   -0.1353161   -0.8403914
   0.0178895   -0.3825282    0.0586842   -0.6452771   -0.1117061   -0.7557375
   0.0173698   -0.3817323    0.0590490   -0.7112461   -0.1194878   -0.6927133
   0.0166774   -0.3818789    0.0599625   -0.8420308   -0.1309880   -0.5232842
   0.0172320   -0.3818593    0.0592484   -0.7759028   -0.1387753   -0.6153993
   0.0207012   -0.3843330    0.0624592    0.8386526    0.0085740    0.5445992
   0.0205116   -0.3839127    0.0626565    0.7990271    0.0158538    0.6010859
   0.0211317   -0.3861143    0.0613428    0.9704259    0.0354365    0.2387841
   0.0211870   -0.3865697    0.0611627    0.9954597    0.0456818    0.0835053
   0.0207965   -0.3851145    0.0623027    0.8850567    0.0187792    0.4651043
   0.0211548   -0.3863476    0.0602943    0.9874335    0.0152179    0.1573009
   0.0212226   -0.3871414    0.0594956    0.9705193   -0.0363891   -0.2382607
   0.0211630   -0.3866079    0.0605288    0.9991803    0.0287336    0.0285154
   0.0213035   -0.3859671    0.0590187    0.9169171   -0.1840176   -0.3541195
   0.0211579   -0.3862274    0.0588829    0.8314728   -0.2148685   -0.5123324
   0.0209230   -0.3867595    0.0587911    0.6434977   -0.1464178   -0.7513139
   0.0193486   -0.3826242    0.0578996   -0.1083267   -0.1939056   -0.9750210
   0.0205907   -0.3850276    0.0583471    0.3147627   -0.1098124   -0.9427967
   0.0194900   -0.3835021    0.0580291   -0.0695170   -0.1635762   -0.9840784
   0.0198409   -0.3843210    0.0581440   -0.0030326   -0.1334502   -0.9910509
   0.0155383   -0.3793597    0.0613177   -0.9434274   -0.3246605   -0.0673812
   0.0156158   -0.3794866    0.0610059   -0.9212235   -0.3413860   -0.1865552
   0.0166043   -0.3802680    0.0649620   -0.8434189   -0.2143625    0.4926391
   0.0163222   -0.3827521    0.0629907   -0.9456650   -0.1676566    0.2785839
   0.0160883   -0.3815107    0.0613985   -0.9762844   -0.1846552   -0.1130097
   0.0162336   -0.3810504    0.0605443   -0.9308928   -0.1748321   -0.3207372
   0.0182874   -0.3816207    0.0655048   -0.1857723   -0.2548678    0.9489632
   0.0184290   -0.3812749    0.0655715    0.1469087   -0.1919579    0.9703453
   0.0185052   -0.3806287    0.0656922    0.1329902   -0.1909702    0.9725451
   0.0173275   -0.3809740    0.0653189   -0.4625448   -0.2649460    0.8460827
   0.0169691   -0.3810885    0.0649980   -0.6276470   -0.2792328    0.7266968
   0.0174188   -0.3804777    0.0655149   -0.4254616   -0.2426549    0.8718377
   0.0185197   -0.3796913    0.0658589    0.1550573   -0.1984132    0.9677755
   0.0192462   -0.3839500    0.0649866    0.4722836   -0.1743752    0.8640263
   0.0197156   -0.3845086    0.0644489    0.8522121   -0.0535324    0.5204506
   0.0199755   -0.3849258    0.0638720    0.9395881   -0.0130637    0.3420578
   0.0201998   -0.3849444    0.0630552    0.8864368    0.0143965    0.4626256
   0.0187745   -0.3818398    0.0654410    0.1034746   -0.2119384    0.9717896
   0.0181875   -0.3830536    0.0651073   -0.3138074   -0.2343468    0.9201122
   0.0181715   -0.3820346    0.0653600   -0.1966003   -0.2672520    0.9433582
   0.0189747   -0.3837590    0.0650923    0.0994438   -0.1925333    0.9762386
   0.0164329   -0.3823745    0.0606530   -0.9041975   -0.1546408   -0.3981370
   0.0189116   -0.3827390    0.0580336   -0.3433254   -0.1810556   -0.9216000
   0.0180755   -0.3829438    0.0585825   -0.6320743   -0.1197884   -0.7655931
   0.0181331   -0.3838461    0.0586963   -0.5685214   -0.1497273   -0.8089284
   0.0175440   -0.3834583    0.0591681   -0.7194936   -0.1198232   -0.6840844
   0.0174507   -0.3844617    0.0594208   -0.7307955   -0.1338824   -0.6693380
   0.0168178   -0.3836784    0.0601350   -0.8587668   -0.1214294   -0.4977695
   0.0165619   -0.3828095    0.0604754   -0.9206672   -0.1186187   -0.3718891
   0.0167843   -0.3850491    0.0606288   -0.9328867   -0.1453638   -0.3295327
   0.0205371   -0.3848299    0.0626738    0.7768537    0.0121645    0.6295636
   0.0209805   -0.3870443    0.0620614    0.9374898    0.0540362    0.3437920
   0.0210773   -0.3873471    0.0618263    0.9498226    0.0720582    0.3043758
   0.0212160   -0.3873233    0.0609942    0.9953935    0.0920897    0.0266685
   0.0212828   -0.3892861    0.0617481    0.9592962    0.0854774    0.2691550
   0.0206571   -0.3857419    0.0625285    0.7910920    0.0155929    0.6114983
   0.0208023   -0.3861558    0.0623598    0.8395792    0.0322109    0.5422815
   0.0212653   -0.3879921    0.0599732    0.9936328    0.0933499   -0.0630851
   0.0211364   -0.3876017    0.0592317    0.8798543    0.0532031   -0.4722561
   0.0210571   -0.3876317    0.0590711    0.7947334    0.0037022   -0.6069474
   0.0211741   -0.3875879    0.0592995    0.8972309    0.0489073   -0.4388448
   0.0209117   -0.3872215    0.0588593    0.7390537   -0.0829475   -0.6685203
   0.0206632   -0.3868402    0.0586253    0.4216032   -0.1218827   -0.8985518
   0.0202621   -0.3855806    0.0583264    0.1277069   -0.1253014   -0.9838651
   0.0191280   -0.3840552    0.0582029   -0.3349119   -0.1649412   -0.9277006
   0.0196349   -0.3857539    0.0583628   -0.2102675   -0.1474827   -0.9664556
   0.0191999   -0.3844950    0.0582607   -0.3029378   -0.1491663   -0.9412641
   0.0169880   -0.3820259    0.0646362   -0.7386648   -0.2658259    0.6194441
   0.0169233   -0.3829907    0.0641585   -0.7767069   -0.1960480    0.5985746
   0.0166429   -0.3835625    0.0635080   -0.8814534   -0.1479162    0.4485095
   0.0164300   -0.3841362    0.0624420   -0.9823837   -0.1216537    0.1418542
   0.0167190   -0.3832345    0.0637152   -0.8644913   -0.1240297    0.4871052
   0.0164444   -0.3837324    0.0611458   -0.9720294   -0.1293743   -0.1960132
   0.0175989   -0.3821993    0.0650698   -0.4789126   -0.2681575    0.8359033
   0.0174360   -0.3823482    0.0649145   -0.5727179   -0.2986677    0.7634080
   0.0194902   -0.3849480    0.0646514    0.5359091   -0.1367127    0.8331333
   0.0188900   -0.3843450    0.0649537   -0.0461975   -0.2132527    0.9759042
   0.0195981   -0.3863949    0.0643191    0.7193114   -0.1253697    0.6832814
   0.0196438   -0.3868519    0.0641378    0.8688052   -0.1252306    0.4790562
   0.0198517   -0.3851925    0.0640803    0.8864138   -0.0847526    0.4550687
   0.0200598   -0.3853849    0.0634830    0.9220306   -0.0463538    0.3843316
   0.0198370   -0.3861285    0.0639154    0.9191973   -0.1005980    0.3807313
   0.0203926   -0.3857845    0.0628450    0.8104741    0.0175817    0.5855106
   0.0185715   -0.3838751    0.0650300   -0.2796547   -0.2336850    0.9312274
   0.0174495   -0.3832854    0.0645849   -0.5699397   -0.2252684    0.7902043
   0.0173588   -0.3828453    0.0646364   -0.6116453   -0.2751939    0.7417266
   0.0182116   -0.3842857    0.0587144   -0.5647031   -0.1395934   -0.8134028
   0.0170828   -0.3849968    0.0600322   -0.8224174   -0.1505071   -0.5486139
   0.0179451   -0.3852632    0.0591125   -0.6609913   -0.1481958   -0.7356144
   0.0167253   -0.3859439    0.0615564   -0.9696421   -0.1609680   -0.1840746
   0.0169369   -0.3854771    0.0604617   -0.8932223   -0.1808047   -0.4116596
   0.0164696   -0.3846062    0.0620475   -0.9873859   -0.1363514   -0.0804819
   0.0209410   -0.3875086    0.0622401    0.8570546    0.0439992    0.5133435
   0.0211784   -0.3888435    0.0619219    0.9458689    0.0591302    0.3191169
   0.0210741   -0.3884028    0.0620952    0.8872431    0.0629917    0.4569812
   0.0213286   -0.3888328    0.0613050    0.9841966    0.1320326    0.1180019
   0.0213366   -0.3884418    0.0597955    0.9840036    0.1429433   -0.1063208
   0.0214241   -0.3891350    0.0604843    0.9890052    0.1387736    0.0510945
   0.0211958   -0.3892607    0.0619466    0.9243476    0.0909516    0.3705528
   0.0211997   -0.3892987    0.0619492    0.9560786    0.0960140    0.2769388
   0.0213111   -0.3897377    0.0617769    0.9387266    0.1263320    0.3206751
   0.0215274   -0.3897288    0.0607443    0.9836702    0.1538251    0.0934385
