NORM_ASCII
2591 5178
3 1160 1284 1173 
3 1278 1161 1285 
3 1285 1161 1162 
3 1286 1285 1162 
3 1287 1162 1163 
3 1162 1287 1286 
3 1164 1287 1163 
3 1288 1164 1165 
3 1289 1287 1164 
3 1289 1164 1290 
3 1164 1288 1290 
3 1288 1165 1273 
3 1273 1165 1166 
3 1169 1168 1291 
3 1168 1171 1292 
3 1168 1292 1293 
3 1168 1293 1291 
3 1169 1294 1170 
3 1295 1294 1169 
3 1296 1169 1291 
3 1295 1169 1296 
3 1297 1170 1294 
3 1170 1297 1298 
3 1299 1232 1170 
3 1170 1298 1299 
3 1172 1292 1171 
3 1300 1172 1301 
3 1172 1173 1301 
3 1292 1172 1300 
3 1284 1301 1173 
3 1177 1176 1302 
3 1302 1176 1303 
3 1303 1176 1179 
3 1233 1177 1304 
3 1302 1304 1177 
3 1179 1305 1303 
3 1180 1305 1179 
3 1180 1181 1306 
3 1180 1306 1307 
3 1180 1307 1308 
3 1308 1234 1180 
3 1305 1180 1234 
3 1306 1181 1309 
3 1182 1309 1181 
3 1182 1183 1309 
3 1309 1183 1310 
3 1183 1311 1310 
3 1200 1311 1183 
3 1185 1205 1184 
3 1312 1203 1185 
3 1185 1203 1205 
3 1185 1187 1312 
3 1185 1186 1187 
3 1312 1187 1193 
3 1188 1189 1208 
3 1188 1208 1192 
3 1189 1206 1208 
3 1313 1191 1190 
3 1192 1313 1190 
3 1191 1314 1195 
3 1314 1191 1315 
3 1315 1191 1313 
3 1263 1313 1192 
3 1209 1192 1208 
3 1316 1193 1197 
3 1312 1193 1316 
3 1238 1196 1194 
3 1194 1317 1238 
3 1317 1194 1195 
3 1317 1195 1314 
3 1236 1197 1196 
3 1196 1238 1236 
3 1316 1197 1236 
3 1200 1198 1311 
3 1198 1235 1311 
3 1203 1202 1205 
3 1204 1203 1316 
3 1312 1316 1203 
3 1316 1236 1204 
3 1210 1241 1240 
3 1211 1241 1210 
3 1211 1242 1241 
3 1212 1242 1211 
3 1212 1243 1242 
3 1214 1243 1212 
3 1213 1318 1214 
3 1318 1213 1217 
3 1214 1244 1243 
3 1318 1244 1214 
3 1216 1319 1215 
3 1320 1215 1319 
3 1215 1320 1219 
3 1319 1216 1321 
3 1322 1321 1216 
3 1216 1323 1322 
3 1216 1220 1224 
3 1224 1323 1216 
3 1217 1324 1318 
3 1217 1218 1325 
3 1217 1251 1324 
3 1251 1217 1325 
3 1326 1218 1219 
3 1325 1218 1326 
3 1327 1219 1320 
3 1326 1219 1327 
3 1221 1220 1222 
3 1224 1220 1221 
3 1225 1223 1228 
3 1224 1328 1323 
3 1225 1328 1224 
3 1329 1225 1330 
3 1331 1225 1329 
3 1228 1330 1225 
3 1225 1331 1328 
3 1228 1227 1330 
3 1330 1227 1332 
3 1332 1227 1230 
3 1231 1229 1333 
3 1333 1229 1334 
3 1232 1334 1229 
3 1335 1230 1336 
3 1230 1231 1337 
3 1337 1336 1230 
3 1230 1335 1332 
3 1338 1337 1231 
3 1333 1338 1231 
3 1339 1334 1232 
3 1232 1299 1340 
3 1340 1339 1232 
3 1233 1304 1341 
3 1233 1341 1234 
3 1234 1341 1305 
3 1234 1308 1235 
3 1310 1235 1307 
3 1311 1235 1310 
3 1308 1307 1235 
3 1239 1238 1317 
3 1342 1262 1239 
3 1239 1317 1342 
3 1318 1246 1244 
3 1246 1252 1245 
3 1248 1245 1252 
3 1324 1246 1318 
3 1324 1252 1246 
3 1248 1261 1247 
3 1249 1261 1248 
3 1251 1343 1250 
3 1250 1343 1253 
3 1251 1252 1324 
3 1343 1251 1325 
3 1253 1343 1344 
3 1345 1253 1344 
3 1345 1255 1253 
3 1254 1255 1346 
3 1256 1254 1347 
3 1254 1346 1347 
3 1348 1255 1345 
3 1255 1348 1349 
3 1350 1255 1349 
3 1350 1346 1255 
3 1347 1351 1256 
3 1259 1256 1351 
3 1264 1257 1352 
3 1257 1258 1352 
3 1260 1353 1258 
3 1352 1258 1353 
3 1259 1351 1260 
3 1353 1260 1354 
3 1260 1355 1356 
3 1357 1354 1260 
3 1260 1356 1357 
3 1260 1351 1355 
3 1342 1358 1262 
3 1358 1263 1262 
3 1359 1263 1358 
3 1313 1263 1359 
3 1264 1360 1361 
3 1264 1352 1360 
3 1266 1264 1361 
3 1269 1265 1362 
3 1363 1265 1266 
3 1362 1265 1363 
3 1364 1266 1361 
3 1363 1266 1364 
3 1275 1268 1365 
3 1365 1268 1366 
3 1271 1366 1268 
3 1367 1270 1269 
3 1368 1269 1362 
3 1269 1368 1367 
3 1270 1366 1271 
3 1369 1370 1270 
3 1371 1366 1270 
3 1270 1367 1369 
3 1371 1270 1370 
3 1372 1272 1276 
3 1372 1274 1272 
3 1273 1373 1288 
3 1273 1374 1373 
3 1274 1372 1273 
3 1374 1273 1372 
3 1275 1375 1277 
3 1375 1275 1365 
3 1276 1376 1377 
3 1277 1376 1276 
3 1377 1372 1276 
3 1277 1378 1376 
3 1378 1277 1375 
3 1278 1285 1283 
3 1279 1379 1280 
3 1279 1380 1379 
3 1282 1380 1279 
3 1280 1379 1284 
3 1281 1381 1282 
3 1281 1382 1381 
3 1383 1382 1281 
3 1281 1283 1383 
3 1282 1381 1380 
3 1283 1285 1384 
3 1283 1384 1383 
3 1379 1301 1284 
3 1385 1384 1285 
3 1285 1286 1385 
3 1286 1287 1386 
3 1286 1387 1385 
3 1387 1286 1386 
3 1386 1287 1289 
3 1388 1290 1288 
3 1389 1288 1373 
3 1388 1288 1389 
3 1386 1289 1390 
3 1290 1391 1289 
3 1390 1289 1391 
3 1290 1388 1391 
3 1293 1300 1291 
3 1291 1300 1392 
3 1291 1392 1296 
3 1293 1292 1300 
3 1294 1295 1297 
3 1295 1393 1394 
3 1393 1295 1296 
3 1295 1394 1297 
3 1392 1395 1296 
3 1396 1393 1296 
3 1296 1395 1396 
3 1297 1397 1298 
3 1297 1394 1397 
3 1398 1399 1298 
3 1299 1298 1399 
3 1398 1298 1397 
3 1400 1299 1401 
3 1400 1340 1299 
3 1299 1399 1401 
3 1402 1300 1301 
3 1402 1392 1300 
3 1380 1402 1301 
3 1301 1379 1380 
3 1304 1302 1341 
3 1302 1303 1341 
3 1341 1303 1305 
3 1306 1309 1307 
3 1307 1309 1310 
3 1359 1315 1313 
3 1314 1342 1317 
3 1314 1315 1358 
3 1342 1314 1358 
3 1315 1359 1358 
3 1319 1403 1320 
3 1403 1319 1404 
3 1404 1319 1321 
3 1327 1320 1403 
3 1321 1405 1404 
3 1406 1405 1321 
3 1321 1322 1406 
3 1323 1407 1322 
3 1322 1408 1406 
3 1408 1322 1407 
3 1328 1407 1323 
3 1409 1343 1325 
3 1325 1326 1409 
3 1410 1326 1327 
3 1326 1410 1411 
3 1409 1326 1411 
3 1403 1412 1327 
3 1327 1413 1410 
3 1327 1412 1413 
3 1414 1328 1415 
3 1414 1407 1328 
3 1331 1415 1328 
3 1416 1329 1330 
3 1331 1329 1417 
3 1416 1417 1329 
3 1418 1330 1419 
3 1420 1330 1418 
3 1330 1332 1421 
3 1330 1420 1416 
3 1421 1422 1330 
3 1330 1422 1419 
3 1423 1415 1331 
3 1423 1331 1417 
3 1421 1332 1335 
3 1334 1339 1333 
3 1338 1333 1424 
3 1424 1333 1339 
3 1336 1422 1335 
3 1335 1422 1421 
3 1425 1336 1337 
3 1422 1336 1425 
3 1425 1337 1338 
3 1424 1425 1338 
3 1424 1339 1340 
3 1340 1426 1424 
3 1427 1426 1340 
3 1427 1340 1400 
3 1343 1409 1344 
3 1348 1344 1428 
3 1429 1344 1409 
3 1344 1429 1430 
3 1344 1348 1345 
3 1428 1344 1431 
3 1344 1432 1431 
3 1344 1430 1432 
3 1433 1346 1350 
3 1347 1346 1433 
3 1355 1351 1347 
3 1347 1433 1434 
3 1434 1355 1347 
3 1428 1435 1348 
3 1435 1349 1348 
3 1350 1349 1435 
3 1433 1350 1435 
3 1353 1360 1352 
3 1361 1353 1436 
3 1361 1360 1353 
3 1436 1353 1354 
3 1357 1437 1354 
3 1437 1438 1354 
3 1354 1438 1436 
3 1356 1355 1439 
3 1355 1434 1439 
3 1440 1357 1356 
3 1356 1439 1440 
3 1441 1357 1442 
3 1357 1443 1442 
3 1440 1443 1357 
3 1441 1437 1357 
3 1364 1361 1436 
3 1363 1368 1362 
3 1444 1368 1363 
3 1363 1364 1445 
3 1444 1363 1445 
3 1364 1436 1438 
3 1445 1364 1438 
3 1370 1375 1365 
3 1366 1371 1365 
3 1365 1371 1370 
3 1369 1367 1446 
3 1446 1367 1368 
3 1447 1446 1368 
3 1447 1368 1444 
3 1369 1448 1370 
3 1448 1369 1449 
3 1446 1449 1369 
3 1450 1375 1370 
3 1370 1448 1451 
3 1450 1370 1451 
3 1452 1374 1372 
3 1452 1372 1377 
3 1389 1373 1453 
3 1373 1374 1454 
3 1373 1454 1453 
3 1374 1452 1455 
3 1374 1455 1456 
3 1374 1456 1454 
3 1457 1378 1375 
3 1458 1459 1375 
3 1375 1460 1458 
3 1461 1457 1375 
3 1375 1450 1460 
3 1461 1375 1459 
3 1462 1377 1376 
3 1376 1463 1464 
3 1376 1465 1462 
3 1376 1461 1466 
3 1457 1461 1376 
3 1376 1464 1465 
3 1463 1376 1466 
3 1376 1378 1457 
3 1377 1462 1467 
3 1452 1377 1468 
3 1377 1467 1468 
3 1380 1381 1402 
3 1392 1381 1382 
3 1381 1392 1402 
3 1382 1469 1395 
3 1395 1392 1382 
3 1383 1469 1382 
3 1383 1384 1470 
3 1469 1383 1470 
3 1471 1470 1384 
3 1385 1471 1384 
3 1387 1471 1385 
3 1386 1472 1387 
3 1386 1390 1472 
3 1387 1473 1471 
3 1472 1473 1387 
3 1389 1474 1388 
3 1391 1388 1474 
3 1453 1475 1389 
3 1475 1476 1389 
3 1477 1474 1389 
3 1389 1476 1477 
3 1472 1390 1478 
3 1479 1480 1390 
3 1391 1479 1390 
3 1478 1390 1480 
3 1391 1481 1479 
3 1481 1391 1474 
3 1394 1393 1482 
3 1396 1482 1393 
3 1483 1397 1394 
3 1483 1394 1482 
3 1469 1396 1395 
3 1396 1469 1470 
3 1396 1470 1484 
3 1482 1396 1484 
3 1397 1483 1398 
3 1401 1399 1398 
3 1485 1398 1486 
3 1487 1398 1488 
3 1489 1488 1398 
3 1398 1487 1486 
3 1398 1485 1401 
3 1398 1483 1489 
3 1401 1490 1400 
3 1427 1400 1491 
3 1491 1400 1490 
3 1492 1490 1401 
3 1492 1401 1485 
3 1412 1403 1404 
3 1412 1404 1413 
3 1405 1413 1404 
3 1405 1493 1413 
3 1494 1493 1405 
3 1405 1406 1494 
3 1494 1406 1408 
3 1494 1407 1414 
3 1494 1408 1407 
3 1409 1411 1429 
3 1413 1411 1410 
3 1413 1493 1411 
3 1429 1411 1493 
3 1414 1415 1495 
3 1495 1494 1414 
3 1496 1495 1415 
3 1423 1496 1415 
3 1420 1497 1416 
3 1416 1497 1417 
3 1498 1423 1417 
3 1417 1497 1499 
3 1499 1498 1417 
3 1418 1419 1500 
3 1418 1501 1420 
3 1418 1502 1501 
3 1418 1503 1502 
3 1504 1503 1418 
3 1500 1504 1418 
3 1505 1500 1419 
3 1419 1424 1505 
3 1424 1419 1425 
3 1422 1425 1419 
3 1420 1501 1497 
3 1496 1423 1498 
3 1505 1424 1506 
3 1506 1424 1426 
3 1506 1426 1507 
3 1491 1426 1427 
3 1507 1426 1491 
3 1428 1508 1509 
3 1510 1511 1428 
3 1428 1431 1510 
3 1428 1509 1512 
3 1511 1508 1428 
3 1512 1513 1428 
3 1435 1428 1513 
3 1429 1493 1514 
3 1429 1514 1495 
3 1429 1495 1496 
3 1430 1429 1496 
3 1430 1496 1432 
3 1431 1515 1510 
3 1431 1499 1515 
3 1431 1496 1498 
3 1498 1499 1431 
3 1431 1432 1496 
3 1435 1516 1433 
3 1516 1434 1433 
3 1434 1516 1439 
3 1513 1516 1435 
3 1517 1438 1437 
3 1518 1437 1519 
3 1441 1519 1437 
3 1437 1518 1517 
3 1517 1445 1438 
3 1439 1516 1520 
3 1521 1439 1520 
3 1522 1439 1521 
3 1439 1522 1523 
3 1523 1440 1439 
3 1443 1440 1524 
3 1525 1524 1440 
3 1440 1523 1525 
3 1441 1442 1526 
3 1527 1528 1441 
3 1528 1519 1441 
3 1441 1526 1527 
3 1524 1442 1443 
3 1529 1530 1442 
3 1442 1524 1531 
3 1442 1531 1529 
3 1442 1530 1532 
3 1442 1532 1526 
3 1444 1533 1534 
3 1445 1535 1444 
3 1533 1444 1535 
3 1534 1447 1444 
3 1535 1445 1536 
3 1537 1536 1445 
3 1537 1445 1517 
3 1447 1449 1446 
3 1449 1447 1538 
3 1534 1539 1447 
3 1540 1538 1447 
3 1539 1540 1447 
3 1449 1451 1448 
3 1451 1449 1538 
3 1541 1460 1450 
3 1538 1450 1451 
3 1538 1541 1450 
3 1468 1455 1452 
3 1475 1453 1454 
3 1454 1456 1475 
3 1542 1456 1455 
3 1455 1468 1542 
3 1456 1542 1475 
3 1543 1459 1458 
3 1458 1460 1541 
3 1544 1458 1541 
3 1458 1544 1543 
3 1459 1466 1461 
3 1545 1459 1543 
3 1546 1466 1459 
3 1546 1459 1545 
3 1547 1467 1462 
3 1462 1465 1547 
3 1464 1463 1548 
3 1548 1463 1549 
3 1549 1463 1546 
3 1463 1466 1546 
3 1464 1547 1465 
3 1550 1547 1464 
3 1548 1550 1464 
3 1468 1467 1547 
3 1475 1542 1468 
3 1550 1475 1468 
3 1550 1468 1547 
3 1471 1484 1470 
3 1473 1484 1471 
3 1473 1472 1551 
3 1472 1478 1551 
3 1551 1552 1473 
3 1484 1473 1552 
3 1553 1481 1474 
3 1474 1477 1553 
3 1554 1475 1550 
3 1554 1476 1475 
3 1476 1555 1477 
3 1476 1556 1557 
3 1557 1555 1476 
3 1558 1476 1554 
3 1556 1476 1558 
3 1553 1477 1555 
3 1480 1551 1478 
3 1480 1479 1559 
3 1481 1559 1479 
3 1551 1480 1560 
3 1480 1561 1560 
3 1559 1561 1480 
3 1481 1562 1563 
3 1553 1562 1481 
3 1563 1559 1481 
3 1564 1565 1482 
3 1484 1552 1482 
3 1552 1564 1482 
3 1482 1565 1566 
3 1483 1482 1567 
3 1566 1567 1482 
3 1489 1483 1567 
3 1486 1568 1485 
3 1568 1569 1485 
3 1569 1492 1485 
3 1570 1486 1487 
3 1568 1486 1571 
3 1570 1571 1486 
3 1488 1572 1487 
3 1487 1572 1570 
3 1573 1488 1567 
3 1567 1488 1489 
3 1574 1488 1573 
3 1575 1488 1574 
3 1575 1572 1488 
3 1490 1492 1491 
3 1492 1576 1491 
3 1491 1576 1507 
3 1577 1576 1492 
3 1492 1569 1577 
3 1514 1493 1494 
3 1495 1514 1494 
3 1501 1515 1497 
3 1497 1515 1499 
3 1505 1504 1500 
3 1501 1510 1515 
3 1502 1510 1501 
3 1510 1502 1508 
3 1508 1502 1503 
3 1508 1503 1578 
3 1578 1503 1579 
3 1579 1503 1504 
3 1504 1505 1506 
3 1579 1504 1506 
3 1579 1506 1580 
3 1580 1506 1507 
3 1576 1581 1507 
3 1507 1582 1580 
3 1581 1582 1507 
3 1578 1509 1508 
3 1511 1510 1508 
3 1583 1512 1509 
3 1578 1583 1509 
3 1512 1584 1513 
3 1583 1584 1512 
3 1516 1513 1584 
3 1584 1520 1516 
3 1517 1518 1537 
3 1518 1585 1537 
3 1519 1528 1518 
3 1586 1518 1528 
3 1585 1518 1587 
3 1518 1586 1587 
3 1588 1520 1584 
3 1520 1589 1521 
3 1520 1588 1589 
3 1589 1522 1521 
3 1590 1523 1522 
3 1589 1590 1522 
3 1523 1590 1525 
3 1524 1591 1531 
3 1524 1525 1591 
3 1591 1525 1592 
3 1525 1590 1592 
3 1593 1526 1532 
3 1526 1594 1587 
3 1526 1587 1527 
3 1526 1593 1594 
3 1586 1528 1527 
3 1587 1586 1527 
3 1595 1530 1529 
3 1596 1529 1531 
3 1597 1598 1529 
3 1529 1598 1595 
3 1529 1596 1597 
3 1599 1532 1530 
3 1599 1530 1595 
3 1531 1591 1600 
3 1600 1601 1531 
3 1531 1601 1596 
3 1532 1599 1593 
3 1533 1602 1534 
3 1603 1533 1535 
3 1602 1533 1603 
3 1539 1534 1604 
3 1602 1604 1534 
3 1536 1603 1535 
3 1605 1536 1537 
3 1606 1603 1536 
3 1607 1536 1605 
3 1607 1606 1536 
3 1608 1537 1585 
3 1537 1608 1605 
3 1538 1609 1541 
3 1609 1538 1610 
3 1538 1540 1610 
3 1539 1604 1611 
3 1611 1610 1539 
3 1610 1540 1539 
3 1544 1541 1609 
3 1543 1544 1612 
3 1543 1613 1549 
3 1549 1545 1543 
3 1612 1613 1543 
3 1614 1615 1544 
3 1609 1614 1544 
3 1616 1612 1544 
3 1615 1616 1544 
3 1546 1545 1549 
3 1548 1554 1550 
3 1558 1554 1548 
3 1548 1617 1558 
3 1618 1548 1619 
3 1548 1618 1617 
3 1620 1619 1548 
3 1548 1549 1620 
3 1620 1549 1613 
3 1560 1552 1551 
3 1560 1564 1552 
3 1555 1557 1553 
3 1562 1553 1621 
3 1557 1621 1553 
3 1622 1557 1556 
3 1556 1558 1622 
3 1622 1621 1557 
3 1558 1623 1622 
3 1624 1625 1558 
3 1625 1623 1558 
3 1624 1558 1617 
3 1559 1626 1561 
3 1563 1626 1559 
3 1561 1564 1560 
3 1561 1565 1564 
3 1626 1565 1561 
3 1562 1621 1563 
3 1626 1563 1627 
3 1563 1628 1627 
3 1563 1621 1629 
3 1563 1629 1628 
3 1566 1565 1626 
3 1626 1630 1566 
3 1566 1630 1567 
3 1567 1630 1631 
3 1567 1631 1573 
3 1632 1568 1571 
3 1568 1633 1569 
3 1632 1634 1568 
3 1633 1568 1634 
3 1577 1569 1633 
3 1635 1636 1570 
3 1572 1575 1570 
3 1570 1637 1638 
3 1638 1571 1570 
3 1635 1570 1575 
3 1570 1636 1637 
3 1571 1638 1639 
3 1571 1639 1632 
3 1640 1573 1631 
3 1641 1573 1640 
3 1573 1641 1642 
3 1574 1573 1642 
3 1642 1643 1574 
3 1644 1645 1574 
3 1574 1643 1644 
3 1635 1574 1645 
3 1575 1574 1635 
3 1576 1646 1647 
3 1647 1581 1576 
3 1577 1646 1576 
3 1577 1648 1646 
3 1648 1577 1633 
3 1649 1583 1578 
3 1578 1579 1649 
3 1649 1579 1580 
3 1580 1650 1649 
3 1650 1580 1582 
3 1651 1581 1647 
3 1581 1651 1650 
3 1650 1582 1581 
3 1588 1584 1583 
3 1649 1588 1583 
3 1608 1585 1652 
3 1652 1585 1587 
3 1652 1587 1594 
3 1653 1588 1649 
3 1653 1589 1588 
3 1651 1589 1653 
3 1651 1590 1589 
3 1590 1651 1592 
3 1592 1654 1591 
3 1655 1600 1591 
3 1591 1656 1655 
3 1654 1656 1591 
3 1592 1651 1657 
3 1658 1592 1657 
3 1654 1592 1658 
3 1599 1595 1593 
3 1593 1595 1659 
3 1593 1659 1660 
3 1594 1593 1660 
3 1652 1594 1661 
3 1662 1661 1594 
3 1660 1663 1594 
3 1594 1663 1662 
3 1664 1659 1595 
3 1598 1664 1595 
3 1596 1601 1665 
3 1596 1666 1597 
3 1666 1596 1665 
3 1597 1667 1598 
3 1668 1597 1669 
3 1666 1670 1597 
3 1597 1668 1667 
3 1671 1669 1597 
3 1671 1597 1670 
3 1598 1667 1664 
3 1600 1655 1601 
3 1601 1655 1672 
3 1672 1665 1601 
3 1673 1611 1602 
3 1603 1606 1602 
3 1611 1604 1602 
3 1673 1602 1606 
3 1674 1605 1608 
3 1674 1607 1605 
3 1606 1675 1673 
3 1606 1607 1675 
3 1676 1607 1677 
3 1678 1607 1679 
3 1676 1675 1607 
3 1607 1678 1677 
3 1674 1680 1607 
3 1679 1607 1680 
3 1652 1681 1608 
3 1608 1681 1674 
3 1614 1609 1682 
3 1611 1673 1609 
3 1683 1682 1609 
3 1609 1610 1611 
3 1609 1673 1684 
3 1684 1683 1609 
3 1612 1685 1686 
3 1612 1687 1620 
3 1612 1616 1685 
3 1613 1612 1620 
3 1686 1687 1612 
3 1615 1614 1688 
3 1682 1688 1614 
3 1689 1616 1615 
3 1688 1689 1615 
3 1685 1616 1690 
3 1616 1689 1690 
3 1691 1624 1617 
3 1617 1618 1691 
3 1692 1618 1619 
3 1691 1618 1692 
3 1693 1619 1694 
3 1619 1693 1692 
3 1619 1620 1695 
3 1619 1696 1694 
3 1619 1695 1696 
3 1695 1620 1687 
3 1697 1629 1621 
3 1697 1621 1622 
3 1642 1641 1622 
3 1622 1641 1697 
3 1622 1623 1698 
3 1698 1642 1622 
3 1644 1623 1699 
3 1625 1699 1623 
3 1644 1698 1623 
3 1625 1624 1691 
3 1699 1625 1645 
3 1645 1625 1691 
3 1626 1627 1630 
3 1627 1628 1630 
3 1628 1700 1630 
3 1700 1628 1629 
3 1640 1629 1697 
3 1700 1629 1640 
3 1630 1700 1631 
3 1640 1631 1700 
3 1701 1632 1639 
3 1632 1702 1703 
3 1632 1704 1702 
3 1705 1704 1632 
3 1632 1701 1705 
3 1703 1634 1632 
3 1633 1706 1707 
3 1707 1648 1633 
3 1706 1633 1634 
3 1703 1706 1634 
3 1708 1636 1635 
3 1645 1709 1635 
3 1635 1709 1708 
3 1637 1636 1710 
3 1710 1636 1708 
3 1638 1637 1711 
3 1711 1637 1710 
3 1712 1639 1638 
3 1712 1638 1711 
3 1639 1713 1701 
3 1639 1714 1713 
3 1639 1712 1714 
3 1640 1697 1641 
3 1643 1642 1698 
3 1698 1644 1643 
3 1645 1644 1699 
3 1691 1715 1645 
3 1716 1709 1645 
3 1645 1715 1716 
3 1657 1647 1646 
3 1658 1646 1717 
3 1718 1646 1648 
3 1646 1658 1657 
3 1717 1646 1718 
3 1647 1657 1651 
3 1719 1720 1648 
3 1648 1721 1718 
3 1648 1720 1721 
3 1719 1648 1707 
3 1650 1653 1649 
3 1650 1651 1653 
3 1652 1661 1681 
3 1722 1654 1723 
3 1723 1654 1658 
3 1656 1654 1724 
3 1722 1724 1654 
3 1725 1655 1656 
3 1672 1655 1726 
3 1726 1655 1725 
3 1656 1724 1727 
3 1656 1727 1725 
3 1717 1723 1658 
3 1660 1659 1728 
3 1728 1659 1664 
3 1660 1728 1729 
3 1663 1660 1729 
3 1661 1662 1681 
3 1681 1662 1730 
3 1730 1662 1663 
3 1663 1731 1730 
3 1732 1731 1663 
3 1663 1733 1732 
3 1663 1729 1734 
3 1734 1733 1663 
3 1667 1735 1664 
3 1664 1735 1728 
3 1736 1737 1665 
3 1666 1665 1737 
3 1665 1672 1736 
3 1738 1739 1666 
3 1666 1737 1740 
3 1666 1740 1738 
3 1666 1741 1670 
3 1739 1741 1666 
3 1742 1735 1667 
3 1667 1734 1742 
3 1667 1668 1734 
3 1668 1669 1743 
3 1668 1744 1734 
3 1668 1743 1744 
3 1743 1669 1671 
3 1745 1746 1670 
3 1670 1741 1745 
3 1670 1746 1671 
3 1743 1671 1746 
3 1736 1672 1726 
3 1673 1747 1684 
3 1747 1673 1675 
3 1674 1730 1731 
3 1674 1681 1730 
3 1680 1674 1731 
3 1676 1747 1675 
3 1676 1677 1748 
3 1684 1747 1676 
3 1684 1676 1748 
3 1749 1677 1678 
3 1748 1677 1749 
3 1749 1678 1679 
3 1679 1680 1750 
3 1679 1750 1749 
3 1751 1680 1752 
3 1753 1752 1680 
3 1750 1680 1751 
3 1680 1754 1753 
3 1680 1731 1754 
3 1683 1755 1682 
3 1682 1755 1756 
3 1682 1756 1757 
3 1757 1688 1682 
3 1755 1683 1684 
3 1748 1749 1684 
3 1684 1749 1758 
3 1684 1758 1755 
3 1690 1686 1685 
3 1759 1686 1690 
3 1759 1687 1686 
3 1760 1695 1687 
3 1760 1687 1759 
3 1761 1689 1688 
3 1688 1757 1761 
3 1690 1689 1759 
3 1689 1762 1759 
3 1689 1763 1762 
3 1761 1763 1689 
3 1715 1691 1764 
3 1693 1691 1692 
3 1691 1765 1764 
3 1765 1691 1693 
3 1694 1766 1693 
3 1693 1767 1765 
3 1767 1693 1766 
3 1768 1694 1696 
3 1769 1766 1694 
3 1768 1769 1694 
3 1696 1695 1760 
3 1770 1696 1771 
3 1771 1696 1772 
3 1760 1773 1696 
3 1774 1696 1773 
3 1774 1772 1696 
3 1770 1768 1696 
3 1713 1775 1701 
3 1776 1705 1701 
3 1776 1701 1775 
3 1702 1777 1703 
3 1702 1778 1779 
3 1702 1780 1781 
3 1702 1782 1783 
3 1783 1777 1702 
3 1782 1702 1781 
3 1779 1780 1702 
3 1702 1704 1776 
3 1778 1702 1776 
3 1777 1707 1703 
3 1703 1707 1706 
3 1704 1705 1776 
3 1707 1777 1784 
3 1707 1784 1785 
3 1785 1719 1707 
3 1786 1710 1708 
3 1708 1709 1786 
3 1786 1709 1716 
3 1710 1787 1788 
3 1710 1788 1789 
3 1789 1711 1710 
3 1710 1786 1787 
3 1712 1711 1790 
3 1789 1790 1711 
3 1790 1714 1712 
3 1791 1713 1714 
3 1775 1713 1792 
3 1792 1713 1793 
3 1791 1793 1713 
3 1789 1714 1790 
3 1794 1795 1714 
3 1714 1789 1794 
3 1714 1795 1791 
3 1796 1716 1715 
3 1715 1797 1798 
3 1715 1764 1797 
3 1798 1796 1715 
3 1799 1786 1716 
3 1716 1796 1799 
3 1800 1717 1718 
3 1723 1717 1800 
3 1718 1801 1800 
3 1801 1718 1721 
3 1720 1719 1802 
3 1719 1785 1802 
3 1802 1721 1720 
3 1801 1721 1802 
3 1722 1723 1800 
3 1724 1722 1803 
3 1803 1722 1804 
3 1800 1804 1722 
3 1803 1727 1724 
3 1725 1727 1805 
3 1805 1726 1725 
3 1726 1806 1736 
3 1726 1807 1808 
3 1726 1805 1807 
3 1808 1806 1726 
3 1805 1727 1803 
3 1729 1728 1735 
3 1729 1735 1742 
3 1734 1729 1742 
3 1809 1754 1731 
3 1731 1732 1809 
3 1733 1810 1732 
3 1810 1811 1732 
3 1809 1732 1811 
3 1734 1810 1733 
3 1810 1734 1744 
3 1736 1806 1737 
3 1737 1806 1740 
3 1739 1738 1812 
3 1740 1812 1738 
3 1741 1739 1812 
3 1813 1740 1806 
3 1812 1740 1813 
3 1741 1812 1745 
3 1814 1815 1743 
3 1746 1816 1743 
3 1743 1816 1814 
3 1817 1744 1743 
3 1817 1743 1815 
3 1744 1817 1810 
3 1746 1745 1818 
3 1745 1812 1819 
3 1819 1820 1745 
3 1818 1745 1821 
3 1822 1821 1745 
3 1745 1820 1822 
3 1746 1818 1816 
3 1749 1750 1823 
3 1749 1823 1824 
3 1825 1758 1749 
3 1826 1825 1749 
3 1749 1824 1826 
3 1823 1750 1751 
3 1752 1827 1751 
3 1824 1823 1751 
3 1751 1827 1828 
3 1824 1751 1828 
3 1829 1752 1753 
3 1829 1830 1752 
3 1830 1828 1752 
3 1828 1827 1752 
3 1753 1754 1829 
3 1831 1829 1754 
3 1754 1809 1831 
3 1832 1756 1755 
3 1758 1832 1755 
3 1833 1756 1834 
3 1756 1832 1834 
3 1757 1756 1833 
3 1835 1761 1757 
3 1836 1835 1757 
3 1833 1837 1757 
3 1837 1836 1757 
3 1825 1832 1758 
3 1759 1762 1838 
3 1759 1839 1760 
3 1839 1759 1838 
3 1773 1760 1839 
3 1763 1761 1835 
3 1762 1763 1840 
3 1838 1762 1840 
3 1836 1840 1763 
3 1763 1835 1836 
3 1764 1841 1797 
3 1765 1841 1764 
3 1767 1841 1765 
3 1842 1767 1766 
3 1842 1766 1769 
3 1843 1767 1844 
3 1767 1843 1841 
3 1844 1767 1842 
3 1769 1768 1845 
3 1846 1845 1768 
3 1768 1847 1846 
3 1768 1770 1847 
3 1845 1842 1769 
3 1847 1770 1771 
3 1771 1772 1847 
3 1848 1772 1774 
3 1849 1850 1772 
3 1772 1848 1849 
3 1850 1847 1772 
3 1774 1773 1851 
3 1773 1839 1851 
3 1848 1774 1851 
3 1852 1776 1775 
3 1852 1775 1792 
3 1776 1852 1778 
3 1784 1777 1783 
3 1779 1778 1853 
3 1854 1778 1852 
3 1854 1855 1778 
3 1778 1855 1853 
3 1856 1780 1779 
3 1779 1853 1856 
3 1857 1781 1780 
3 1857 1780 1858 
3 1780 1856 1859 
3 1859 1858 1780 
3 1860 1781 1857 
3 1781 1860 1782 
3 1784 1783 1782 
3 1861 1784 1782 
3 1862 1863 1782 
3 1863 1861 1782 
3 1864 1782 1860 
3 1862 1782 1864 
3 1784 1865 1785 
3 1861 1866 1784 
3 1865 1784 1866 
3 1785 1867 1802 
3 1785 1868 1867 
3 1868 1785 1865 
3 1787 1786 1869 
3 1786 1799 1869 
3 1788 1787 1870 
3 1787 1871 1872 
3 1872 1870 1787 
3 1787 1869 1871 
3 1873 1874 1788 
3 1788 1870 1873 
3 1789 1788 1875 
3 1875 1788 1876 
3 1788 1874 1877 
3 1876 1788 1877 
3 1789 1875 1878 
3 1794 1789 1878 
3 1791 1795 1879 
3 1880 1793 1791 
3 1879 1880 1791 
3 1881 1792 1793 
3 1792 1881 1852 
3 1881 1793 1880 
3 1795 1794 1882 
3 1878 1882 1794 
3 1883 1884 1795 
3 1879 1795 1885 
3 1885 1795 1884 
3 1795 1882 1883 
3 1886 1799 1796 
3 1886 1796 1887 
3 1887 1796 1798 
3 1798 1797 1888 
3 1888 1797 1841 
3 1887 1798 1888 
3 1799 1886 1869 
3 1801 1804 1800 
3 1867 1804 1801 
3 1802 1867 1801 
3 1803 1865 1805 
3 1865 1803 1804 
3 1868 1804 1867 
3 1865 1804 1868 
3 1889 1807 1805 
3 1889 1805 1865 
3 1808 1890 1806 
3 1806 1890 1813 
3 1890 1808 1807 
3 1890 1807 1889 
3 1831 1809 1811 
3 1891 1810 1817 
3 1811 1810 1892 
3 1892 1810 1893 
3 1893 1810 1891 
3 1811 1892 1831 
3 1894 1895 1812 
3 1894 1812 1896 
3 1896 1812 1813 
3 1819 1812 1895 
3 1897 1813 1890 
3 1898 1813 1897 
3 1896 1813 1898 
3 1814 1899 1815 
3 1900 1814 1816 
3 1899 1814 1900 
3 1901 1817 1815 
3 1901 1815 1899 
3 1816 1818 1902 
3 1900 1816 1902 
3 1891 1817 1901 
3 1821 1902 1818 
3 1903 1819 1895 
3 1820 1819 1903 
3 1904 1822 1820 
3 1903 1904 1820 
3 1902 1821 1905 
3 1906 1821 1822 
3 1821 1906 1905 
3 1822 1904 1907 
3 1907 1906 1822 
3 1908 1826 1824 
3 1909 1908 1824 
3 1828 1909 1824 
3 1834 1832 1825 
3 1834 1825 1910 
3 1910 1825 1826 
3 1911 1826 1908 
3 1826 1911 1912 
3 1910 1826 1912 
3 1913 1828 1830 
3 1909 1828 1913 
3 1914 1829 1831 
3 1915 1829 1914 
3 1915 1830 1829 
3 1913 1830 1916 
3 1917 1918 1830 
3 1917 1830 1915 
3 1916 1830 1918 
3 1919 1914 1831 
3 1831 1892 1920 
3 1919 1831 1920 
3 1834 1921 1833 
3 1922 1837 1833 
3 1923 1924 1833 
3 1925 1926 1833 
3 1833 1921 1927 
3 1833 1926 1922 
3 1833 1927 1923 
3 1924 1925 1833 
3 1921 1834 1910 
3 1836 1928 1840 
3 1928 1836 1837 
3 1922 1929 1837 
3 1928 1837 1929 
3 1838 1930 1931 
3 1851 1839 1838 
3 1932 1838 1840 
3 1838 1931 1851 
3 1838 1932 1930 
3 1840 1928 1932 
3 1841 1843 1888 
3 1842 1933 1844 
3 1842 1845 1933 
3 1934 1843 1844 
3 1888 1843 1934 
3 1934 1844 1935 
3 1935 1844 1933 
3 1846 1933 1845 
3 1933 1846 1936 
3 1846 1847 1937 
3 1936 1846 1937 
3 1847 1938 1939 
3 1847 1850 1938 
3 1940 1937 1847 
3 1939 1940 1847 
3 1849 1848 1851 
3 1850 1849 1941 
3 1851 1931 1849 
3 1931 1942 1849 
3 1943 1849 1944 
3 1944 1849 1945 
3 1849 1942 1945 
3 1941 1849 1943 
3 1938 1850 1941 
3 1852 1946 1947 
3 1947 1854 1852 
3 1948 1946 1852 
3 1852 1881 1948 
3 1949 1856 1853 
3 1853 1855 1949 
3 1947 1855 1854 
3 1949 1855 1950 
3 1950 1855 1947 
3 1856 1951 1859 
3 1949 1951 1856 
3 1864 1860 1857 
3 1858 1952 1857 
3 1953 1864 1857 
3 1857 1952 1953 
3 1858 1954 1952 
3 1955 1954 1858 
3 1858 1859 1956 
3 1956 1955 1858 
3 1951 1956 1859 
3 1861 1957 1866 
3 1957 1861 1863 
3 1958 1863 1862 
3 1959 1862 1960 
3 1961 1960 1862 
3 1864 1961 1862 
3 1862 1959 1958 
3 1962 1957 1863 
3 1863 1963 1962 
3 1963 1863 1958 
3 1964 1961 1864 
3 1965 1864 1953 
3 1864 1965 1964 
3 1866 1889 1865 
3 1957 1889 1866 
3 1869 1966 1871 
3 1966 1869 1886 
3 1870 1967 1873 
3 1872 1967 1870 
3 1871 1968 1872 
3 1968 1871 1969 
3 1966 1969 1871 
3 1970 1872 1968 
3 1967 1872 1970 
3 1971 1874 1873 
3 1970 1971 1873 
3 1873 1967 1970 
3 1874 1971 1972 
3 1972 1877 1874 
3 1876 1878 1875 
3 1973 1876 1974 
3 1973 1878 1876 
3 1876 1877 1974 
3 1974 1877 1972 
3 1882 1878 1973 
3 1885 1880 1879 
3 1881 1880 1975 
3 1885 1975 1880 
3 1948 1881 1975 
3 1976 1883 1882 
3 1973 1976 1882 
3 1977 1884 1883 
3 1977 1883 1976 
3 1885 1884 1978 
3 1977 1978 1884 
3 1979 1975 1885 
3 1978 1979 1885 
3 1980 1886 1887 
3 1980 1966 1886 
3 1980 1887 1981 
3 1981 1887 1888 
3 1934 1981 1888 
3 1890 1889 1982 
3 1957 1982 1889 
3 1982 1983 1890 
3 1984 1897 1890 
3 1890 1983 1984 
3 1891 1985 1986 
3 1985 1891 1901 
3 1891 1986 1893 
3 1892 1893 1920 
3 1920 1893 1987 
3 1893 1986 1987 
3 1895 1894 1988 
3 1894 1898 1989 
3 1894 1989 1988 
3 1894 1896 1898 
3 1895 1988 1903 
3 1990 1991 1897 
3 1897 1992 1990 
3 1984 1992 1897 
3 1897 1991 1993 
3 1897 1993 1898 
3 1994 1989 1898 
3 1898 1993 1994 
3 1995 1996 1899 
3 1899 1900 1995 
3 1899 1996 1901 
3 1997 1900 1902 
3 1995 1900 1997 
3 1998 1999 1901 
3 2000 2001 1901 
3 1901 2002 2000 
3 2001 2003 1901 
3 1901 2003 1998 
3 1901 1996 2002 
3 1901 1999 2004 
3 2004 1985 1901 
3 1902 1905 2005 
3 1902 2005 1997 
3 1903 1988 2006 
3 1904 1903 2006 
3 2007 1904 2006 
3 1907 1904 2007 
3 2008 2005 1905 
3 2009 2010 1905 
3 2011 2009 1905 
3 2010 2008 1905 
3 2011 1905 1906 
3 2011 1906 1907 
3 1907 2007 2012 
3 2013 2014 1907 
3 2013 1907 2012 
3 1907 2014 2015 
3 1907 2015 2011 
3 1911 1908 2016 
3 1908 1909 2016 
3 2017 1909 1913 
3 1909 2017 2016 
3 1910 2018 1921 
3 1912 2018 1910 
3 1912 1911 2019 
3 2016 2019 1911 
3 1912 2019 2020 
3 2018 1912 2021 
3 2021 1912 2020 
3 1913 1916 2022 
3 2022 2023 1913 
3 1913 2023 2017 
3 1914 2024 2025 
3 1914 2026 2027 
3 1914 1919 2024 
3 2025 2026 1914 
3 1914 2027 1915 
3 1917 1915 2027 
3 2022 1916 2028 
3 1918 2028 1916 
3 1918 1917 2029 
3 2030 1917 2026 
3 2027 2026 1917 
3 2029 1917 2030 
3 1918 2029 2031 
3 2031 2028 1918 
3 2032 2024 1919 
3 1919 1920 2032 
3 1920 2033 2032 
3 2034 2033 1920 
3 2034 1920 1987 
3 1927 1921 2018 
3 1929 1922 2035 
3 2035 1922 1926 
3 2036 1924 1923 
3 1923 1927 2036 
3 1925 1924 2037 
3 2038 1924 2036 
3 2038 2037 1924 
3 2035 1926 1925 
3 2039 1925 2040 
3 2041 2042 1925 
3 2037 2041 1925 
3 2042 2040 1925 
3 2039 2035 1925 
3 2021 2036 1927 
3 2021 1927 2018 
3 2043 1932 1928 
3 2043 1928 1929 
3 2035 2044 1929 
3 2043 1929 2044 
3 2045 1931 1930 
3 2045 1930 2039 
3 1930 1932 2043 
3 2043 2044 1930 
3 1930 2044 2039 
3 1942 1931 2045 
3 1935 1933 2046 
3 2047 2046 1933 
3 2048 2047 1933 
3 1936 2048 1933 
3 1934 1935 1980 
3 1980 1981 1934 
3 1969 1935 2049 
3 1969 1980 1935 
3 2049 1935 2046 
3 1937 2050 1936 
3 1936 2050 2051 
3 2048 1936 2051 
3 2050 1937 2052 
3 2052 1937 1940 
3 1939 1938 2053 
3 1941 2054 1938 
3 2053 1938 2055 
3 1938 2054 2055 
3 1940 1939 2056 
3 2053 2056 1939 
3 2056 2052 1940 
3 1941 1943 2054 
3 1945 1942 2057 
3 1942 2045 2058 
3 2058 2057 1942 
3 2059 1943 1944 
3 2060 2054 1943 
3 2060 1943 2059 
3 1944 1945 2057 
3 2059 1944 2061 
3 2057 2061 1944 
3 2062 1947 1946 
3 2063 1946 2064 
3 2064 1946 1948 
3 1946 2063 2065 
3 1946 2065 2062 
3 1947 2066 1950 
3 1947 2067 2066 
3 2062 2067 1947 
3 1948 1975 2068 
3 2064 1948 2068 
3 1951 1949 2069 
3 2069 1949 1950 
3 2069 1950 2070 
3 1950 2066 2070 
3 2071 1956 1951 
3 2069 2072 1951 
3 1951 2073 2071 
3 2073 1951 2072 
3 2074 1953 1952 
3 2075 1952 1954 
3 2076 2074 1952 
3 2076 1952 2075 
3 2074 1965 1953 
3 2075 1954 1955 
3 2075 1955 2071 
3 1956 2071 1955 
3 1982 1957 1962 
3 1958 2077 1963 
3 1958 1959 2077 
3 1960 2078 1959 
3 1984 2077 1959 
3 1959 2078 1984 
3 1960 1990 1992 
3 1990 1960 1961 
3 1992 2078 1960 
3 1991 1990 1961 
3 1961 2079 1991 
3 2079 1961 1964 
3 1962 1963 1982 
3 1983 1963 1984 
3 1963 1983 1982 
3 1963 2077 1984 
3 2080 1964 1965 
3 2081 1964 2080 
3 1964 2081 2082 
3 2082 2079 1964 
3 2080 1965 2074 
3 1969 1966 1980 
3 2083 1970 1968 
3 2049 1968 1969 
3 2049 2083 1968 
3 2084 1971 1970 
3 1970 2083 2085 
3 2085 2084 1970 
3 2086 1972 1971 
3 1971 2084 2086 
3 1974 1972 2087 
3 1972 2086 2088 
3 2088 2087 1972 
3 1973 1974 2089 
3 2090 1976 1973 
3 2089 2091 1973 
3 2090 1973 2091 
3 2087 2089 1974 
3 2068 1975 1979 
3 2090 2092 1976 
3 1977 1976 2092 
3 1977 2068 1978 
3 1977 2093 2064 
3 2064 2068 1977 
3 2093 1977 2092 
3 1979 1978 2068 
3 1984 2078 1992 
3 2094 1986 1985 
3 2094 1985 2004 
3 2094 1987 1986 
3 2095 2034 1987 
3 2095 1987 2094 
3 2096 2006 1988 
3 1988 1989 2096 
3 2081 2096 1989 
3 1989 1994 2081 
3 2097 1993 1991 
3 1991 2079 2097 
3 1994 1993 2097 
3 1994 2097 2079 
3 1994 2079 2082 
3 1994 2082 2081 
3 1996 1995 1997 
3 1997 2002 1996 
3 2098 2002 1997 
3 2098 1997 2005 
3 1999 1998 2099 
3 2099 1998 2100 
3 2100 1998 2003 
3 2099 2101 1999 
3 1999 2102 2004 
3 2102 1999 2101 
3 2000 2103 2001 
3 2104 2000 2105 
3 2000 2002 2098 
3 2000 2098 2105 
3 2000 2104 2103 
3 2001 2103 2003 
3 2100 2003 2103 
3 2004 2102 2094 
3 2106 2098 2005 
3 2005 2107 2106 
3 2107 2005 2008 
3 2108 2109 2006 
3 2006 2096 2108 
3 2110 2006 2109 
3 2007 2006 2110 
3 2111 2012 2007 
3 2110 2112 2007 
3 2007 2112 2111 
3 2008 2113 2107 
3 2008 2114 2113 
3 2010 2114 2008 
3 2009 2115 2010 
3 2009 2116 2115 
3 2011 2116 2009 
3 2010 2115 2114 
3 2011 2117 2116 
3 2015 2117 2011 
3 2118 2012 2119 
3 2119 2012 2111 
3 2120 2012 2118 
3 2120 2013 2012 
3 2121 2014 2013 
3 2120 2121 2013 
3 2121 2015 2014 
3 2015 2121 2117 
3 2016 2017 2122 
3 2016 2122 2123 
3 2123 2019 2016 
3 2017 2023 2124 
3 2017 2124 2122 
3 2123 2020 2019 
3 2125 2020 2123 
3 2020 2125 2021 
3 2021 2126 2127 
3 2021 2125 2126 
3 2021 2127 2036 
3 2128 2022 2028 
3 2023 2022 2128 
3 2124 2023 2128 
3 2024 2032 2025 
3 2129 2025 2032 
3 2130 2131 2025 
3 2026 2025 2131 
3 2025 2129 2130 
3 2026 2132 2030 
3 2131 2132 2026 
3 2128 2028 2031 
3 2031 2029 2133 
3 2134 2133 2029 
3 2029 2030 2134 
3 2135 2134 2030 
3 2135 2030 2132 
3 2031 2133 2136 
3 2128 2031 2136 
3 2129 2032 2137 
3 2032 2033 2137 
3 2137 2033 2034 
3 2034 2095 2137 
3 2044 2035 2039 
3 2038 2036 2138 
3 2127 2139 2036 
3 2138 2036 2139 
3 2140 2041 2037 
3 2037 2038 2140 
3 2138 2141 2038 
3 2038 2141 2142 
3 2142 2140 2038 
3 2045 2039 2143 
3 2144 2039 2040 
3 2143 2039 2144 
3 2144 2040 2042 
3 2145 2042 2041 
3 2041 2140 2146 
3 2147 2145 2041 
3 2148 2147 2041 
3 2041 2146 2148 
3 2149 2042 2145 
3 2042 2149 2144 
3 2045 2150 2058 
3 2045 2143 2150 
3 2049 2046 2151 
3 2047 2151 2046 
3 2047 2051 2152 
3 2051 2047 2048 
3 2151 2047 2152 
3 2083 2049 2085 
3 2151 2085 2049 
3 2052 2153 2050 
3 2050 2153 2154 
3 2050 2155 2156 
3 2156 2051 2050 
3 2050 2154 2155 
3 2157 2158 2051 
3 2051 2156 2157 
3 2051 2158 2159 
3 2159 2152 2051 
3 2160 2052 2056 
3 2160 2153 2052 
3 2056 2053 2161 
3 2162 2163 2053 
3 2161 2053 2164 
3 2164 2053 2163 
3 2162 2053 2055 
3 2165 2054 2060 
3 2055 2054 2165 
3 2055 2166 2162 
3 2166 2055 2165 
3 2161 2167 2056 
3 2056 2167 2160 
3 2168 2057 2058 
3 2168 2061 2057 
3 2058 2150 2168 
3 2169 2059 2061 
3 2060 2059 2165 
3 2165 2059 2170 
3 2059 2169 2170 
3 2169 2061 2168 
3 2062 2171 2067 
3 2171 2062 2172 
3 2172 2062 2065 
3 2063 2064 2093 
3 2093 2173 2063 
3 2063 2173 2065 
3 2174 2065 2173 
3 2175 2065 2174 
3 2065 2175 2172 
3 2067 2070 2066 
3 2070 2067 2069 
3 2067 2072 2069 
3 2067 2171 2176 
3 2072 2067 2177 
3 2177 2067 2176 
3 2071 2073 2075 
3 2178 2073 2072 
3 2178 2072 2177 
3 2076 2073 2178 
3 2076 2075 2073 
3 2074 2179 2080 
3 2180 2179 2074 
3 2180 2074 2076 
3 2180 2076 2181 
3 2182 2181 2076 
3 2182 2076 2178 
3 2183 2080 2179 
3 2183 2081 2080 
3 2183 2184 2081 
3 2081 2184 2096 
3 2159 2086 2084 
3 2084 2085 2159 
3 2085 2152 2159 
3 2152 2085 2151 
3 2158 2086 2159 
3 2088 2086 2158 
3 2089 2087 2185 
3 2087 2186 2185 
3 2087 2088 2186 
3 2088 2158 2186 
3 2187 2091 2089 
3 2185 2187 2089 
3 2092 2090 2091 
3 2091 2187 2188 
3 2092 2091 2188 
3 2092 2188 2093 
3 2093 2174 2173 
3 2093 2188 2189 
3 2189 2174 2093 
3 2190 2095 2094 
3 2094 2191 2190 
3 2192 2094 2102 
3 2191 2094 2192 
3 2137 2095 2190 
3 2108 2096 2184 
3 2105 2098 2193 
3 2106 2193 2098 
3 2101 2099 2194 
3 2100 2194 2099 
3 2100 2103 2104 
3 2104 2194 2100 
3 2192 2102 2101 
3 2192 2101 2195 
3 2101 2194 2195 
3 2105 2193 2104 
3 2104 2196 2194 
3 2196 2104 2193 
3 2106 2107 2197 
3 2106 2197 2198 
3 2193 2106 2198 
3 2107 2199 2197 
3 2107 2113 2199 
3 2109 2108 2200 
3 2108 2184 2200 
3 2201 2109 2200 
3 2201 2202 2109 
3 2109 2202 2110 
3 2110 2202 2112 
3 2111 2112 2203 
3 2119 2111 2203 
3 2112 2204 2203 
3 2112 2202 2204 
3 2205 2113 2206 
3 2113 2114 2206 
3 2207 2113 2205 
3 2207 2198 2113 
3 2198 2199 2113 
3 2208 2206 2114 
3 2114 2115 2208 
3 2208 2115 2116 
3 2116 2117 2209 
3 2208 2116 2209 
3 2210 2209 2117 
3 2117 2121 2210 
3 2211 2118 2119 
3 2120 2118 2211 
3 2212 2119 2203 
3 2119 2212 2211 
3 2213 2210 2120 
3 2121 2120 2210 
3 2120 2211 2213 
3 2214 2125 2122 
3 2122 2215 2214 
3 2136 2122 2124 
3 2136 2215 2122 
3 2123 2122 2125 
3 2124 2128 2136 
3 2125 2216 2126 
3 2216 2125 2214 
3 2127 2126 2217 
3 2126 2216 2218 
3 2217 2126 2218 
3 2139 2127 2217 
3 2129 2219 2130 
3 2137 2220 2129 
3 2219 2129 2220 
3 2130 2219 2131 
3 2219 2221 2131 
3 2222 2131 2221 
3 2132 2131 2222 
3 2223 2132 2222 
3 2132 2223 2135 
3 2136 2133 2224 
3 2133 2134 2225 
3 2224 2133 2225 
3 2134 2135 2223 
3 2225 2134 2226 
3 2226 2134 2223 
3 2136 2224 2227 
3 2215 2136 2227 
3 2190 2220 2137 
3 2228 2138 2139 
3 2141 2138 2228 
3 2139 2217 2229 
3 2139 2229 2228 
3 2140 2230 2146 
3 2140 2142 2230 
3 2141 2228 2231 
3 2142 2141 2232 
3 2232 2141 2231 
3 2230 2142 2232 
3 2150 2143 2233 
3 2143 2144 2233 
3 2144 2149 2233 
3 2149 2145 2234 
3 2145 2147 2234 
3 2235 2146 2236 
3 2146 2230 2237 
3 2237 2236 2146 
3 2235 2148 2146 
3 2148 2234 2147 
3 2235 2238 2148 
3 2148 2238 2234 
3 2238 2149 2234 
3 2233 2149 2238 
3 2150 2235 2239 
3 2168 2150 2240 
3 2150 2239 2240 
3 2150 2233 2235 
3 2241 2154 2153 
3 2241 2153 2160 
3 2186 2155 2154 
3 2242 2186 2154 
3 2243 2154 2241 
3 2242 2154 2243 
3 2155 2157 2156 
3 2186 2157 2155 
3 2186 2158 2157 
3 2241 2160 2244 
3 2245 2160 2167 
3 2246 2244 2160 
3 2245 2246 2160 
3 2161 2164 2167 
3 2163 2162 2247 
3 2162 2166 2247 
3 2248 2249 2163 
3 2249 2164 2163 
3 2250 2248 2163 
3 2250 2163 2247 
3 2167 2164 2245 
3 2245 2164 2249 
3 2251 2166 2165 
3 2170 2251 2165 
3 2247 2166 2251 
3 2240 2252 2168 
3 2169 2168 2253 
3 2168 2254 2253 
3 2168 2252 2254 
3 2255 2170 2169 
3 2255 2169 2253 
3 2170 2247 2251 
3 2256 2247 2170 
3 2170 2257 2256 
3 2257 2170 2255 
3 2176 2171 2172 
3 2258 2172 2175 
3 2172 2258 2259 
3 2176 2172 2260 
3 2259 2260 2172 
3 2189 2261 2174 
3 2175 2174 2261 
3 2262 2175 2261 
3 2175 2263 2264 
3 2175 2262 2265 
3 2258 2175 2264 
3 2265 2263 2175 
3 2177 2176 2266 
3 2267 2176 2260 
3 2267 2266 2176 
3 2177 2268 2178 
3 2269 2268 2177 
3 2270 2177 2271 
3 2266 2271 2177 
3 2177 2270 2269 
3 2268 2182 2178 
3 2184 2183 2179 
3 2272 2184 2179 
3 2272 2179 2180 
3 2273 2200 2180 
3 2200 2272 2180 
3 2180 2181 2274 
3 2273 2180 2274 
3 2182 2275 2181 
3 2274 2181 2275 
3 2182 2268 2269 
3 2275 2182 2269 
3 2200 2184 2272 
3 2185 2186 2242 
3 2185 2276 2277 
3 2277 2187 2185 
3 2242 2278 2185 
3 2276 2185 2278 
3 2187 2279 2188 
3 2279 2187 2277 
3 2280 2189 2188 
3 2188 2279 2280 
3 2281 2282 2189 
3 2281 2189 2280 
3 2189 2282 2261 
3 2220 2190 2283 
3 2283 2190 2191 
3 2191 2284 2283 
3 2285 2191 2286 
3 2284 2191 2285 
3 2191 2195 2287 
3 2191 2288 2289 
3 2287 2288 2191 
3 2289 2290 2191 
3 2191 2290 2286 
3 2192 2195 2191 
3 2193 2198 2196 
3 2194 2287 2195 
3 2291 2287 2194 
3 2194 2196 2291 
3 2207 2291 2196 
3 2196 2198 2207 
3 2198 2197 2199 
3 2201 2200 2292 
3 2292 2200 2273 
3 2293 2201 2292 
3 2202 2201 2293 
3 2293 2204 2202 
3 2294 2203 2204 
3 2203 2295 2212 
3 2296 2295 2203 
3 2296 2203 2294 
3 2204 2293 2294 
3 2205 2206 2208 
3 2207 2205 2297 
3 2298 2205 2209 
3 2298 2297 2205 
3 2209 2205 2208 
3 2207 2299 2300 
3 2301 2291 2207 
3 2302 2301 2207 
3 2207 2297 2299 
3 2207 2300 2302 
3 2303 2304 2209 
3 2304 2298 2209 
3 2209 2210 2303 
3 2210 2213 2303 
3 2211 2212 2305 
3 2306 2211 2307 
3 2213 2211 2308 
3 2211 2305 2307 
3 2309 2308 2211 
3 2211 2306 2309 
3 2295 2305 2212 
3 2308 2303 2213 
3 2215 2310 2214 
3 2216 2214 2310 
3 2215 2227 2311 
3 2215 2311 2310 
3 2218 2216 2310 
3 2229 2217 2312 
3 2312 2217 2218 
3 2312 2218 2310 
3 2220 2313 2219 
3 2219 2284 2221 
3 2313 2284 2219 
3 2220 2283 2314 
3 2314 2313 2220 
3 2315 2316 2221 
3 2221 2317 2315 
3 2317 2221 2284 
3 2222 2221 2316 
3 2316 2318 2222 
3 2319 2222 2318 
3 2223 2222 2319 
3 2223 2319 2226 
3 2224 2225 2320 
3 2224 2320 2321 
3 2227 2224 2321 
3 2225 2226 2322 
3 2225 2322 2320 
3 2322 2226 2323 
3 2324 2323 2226 
3 2226 2319 2324 
3 2311 2227 2325 
3 2325 2227 2321 
3 2231 2228 2229 
3 2229 2312 2231 
3 2230 2326 2237 
3 2326 2230 2232 
3 2232 2231 2327 
3 2328 2327 2231 
3 2231 2312 2328 
3 2327 2326 2232 
3 2235 2233 2238 
3 2235 2329 2239 
3 2235 2236 2329 
3 2236 2237 2330 
3 2329 2236 2330 
3 2237 2331 2330 
3 2237 2326 2331 
3 2332 2333 2239 
3 2239 2329 2332 
3 2240 2239 2333 
3 2252 2240 2333 
3 2244 2243 2241 
3 2278 2242 2243 
3 2244 2334 2243 
3 2278 2243 2334 
3 2335 2334 2244 
3 2335 2244 2246 
3 2336 2246 2245 
3 2337 2336 2245 
3 2245 2249 2248 
3 2248 2337 2245 
3 2246 2336 2335 
3 2250 2247 2256 
3 2338 2248 2250 
3 2338 2337 2248 
3 2339 2340 2250 
3 2250 2340 2338 
3 2339 2250 2256 
3 2252 2333 2341 
3 2341 2342 2252 
3 2252 2342 2254 
3 2253 2343 2255 
3 2343 2253 2344 
3 2254 2344 2253 
3 2254 2342 2344 
3 2255 2343 2257 
3 2256 2257 2339 
3 2257 2345 2339 
3 2343 2345 2257 
3 2264 2259 2258 
3 2259 2346 2347 
3 2347 2260 2259 
3 2346 2259 2264 
3 2260 2348 2349 
3 2260 2347 2348 
3 2260 2350 2267 
3 2349 2350 2260 
3 2351 2261 2282 
3 2351 2352 2261 
3 2261 2352 2262 
3 2262 2353 2354 
3 2262 2355 2353 
3 2355 2262 2352 
3 2265 2262 2356 
3 2354 2356 2262 
3 2357 2264 2263 
3 2263 2265 2358 
3 2263 2359 2360 
3 2263 2360 2357 
3 2358 2359 2263 
3 2264 2361 2346 
3 2362 2361 2264 
3 2357 2362 2264 
3 2356 2358 2265 
3 2271 2266 2350 
3 2266 2267 2350 
3 2269 2363 2364 
3 2363 2269 2270 
3 2269 2364 2275 
3 2363 2270 2271 
3 2363 2271 2365 
3 2350 2365 2271 
3 2366 2292 2273 
3 2274 2366 2273 
3 2367 2274 2364 
3 2274 2367 2366 
3 2364 2274 2275 
3 2368 2277 2276 
3 2276 2278 2369 
3 2276 2369 2368 
3 2277 2280 2279 
3 2280 2277 2368 
3 2369 2278 2334 
3 2280 2370 2281 
3 2370 2280 2371 
3 2280 2368 2371 
3 2281 2370 2282 
3 2372 2373 2282 
3 2371 2282 2370 
3 2282 2374 2351 
3 2282 2371 2372 
3 2374 2282 2373 
3 2314 2283 2284 
3 2314 2284 2313 
3 2317 2284 2285 
3 2285 2315 2317 
3 2315 2285 2375 
3 2286 2376 2285 
3 2285 2376 2377 
3 2378 2285 2377 
3 2375 2285 2378 
3 2286 2290 2379 
3 2286 2380 2376 
3 2379 2380 2286 
3 2288 2287 2291 
3 2381 2289 2288 
3 2301 2288 2291 
3 2381 2288 2382 
3 2302 2288 2301 
3 2302 2382 2288 
3 2383 2289 2384 
3 2289 2381 2384 
3 2290 2289 2383 
3 2290 2383 2385 
3 2379 2290 2385 
3 2292 2366 2293 
3 2386 2293 2366 
3 2387 2294 2293 
3 2293 2386 2387 
3 2388 2294 2389 
3 2389 2294 2387 
3 2296 2294 2388 
3 2295 2296 2305 
3 2388 2390 2296 
3 2307 2305 2296 
3 2391 2296 2390 
3 2307 2296 2391 
3 2392 2297 2298 
3 2297 2392 2299 
3 2393 2298 2304 
3 2298 2394 2395 
3 2395 2392 2298 
3 2394 2298 2393 
3 2299 2396 2300 
3 2397 2396 2299 
3 2398 2299 2392 
3 2397 2299 2398 
3 2382 2302 2300 
3 2300 2396 2382 
3 2399 2304 2303 
3 2303 2308 2399 
3 2399 2393 2304 
3 2400 2306 2307 
3 2306 2400 2401 
3 2402 2306 2403 
3 2309 2306 2402 
3 2306 2401 2403 
3 2307 2391 2400 
3 2399 2308 2404 
3 2308 2309 2404 
3 2404 2309 2402 
3 2310 2311 2312 
3 2325 2405 2311 
3 2311 2405 2312 
3 2328 2312 2405 
3 2316 2315 2406 
3 2407 2315 2375 
3 2406 2315 2407 
3 2318 2316 2408 
3 2316 2406 2408 
3 2409 2324 2318 
3 2318 2408 2409 
3 2319 2318 2324 
3 2410 2320 2411 
3 2320 2322 2411 
3 2410 2321 2320 
3 2321 2410 2412 
3 2321 2412 2325 
3 2413 2411 2322 
3 2323 2413 2322 
3 2414 2323 2324 
3 2415 2413 2323 
3 2323 2416 2415 
3 2416 2323 2414 
3 2324 2409 2414 
3 2405 2325 2328 
3 2417 2325 2412 
3 2417 2328 2325 
3 2327 2418 2326 
3 2331 2326 2418 
3 2327 2328 2419 
3 2327 2419 2420 
3 2418 2327 2420 
3 2419 2328 2417 
3 2332 2329 2330 
3 2421 2332 2330 
3 2330 2331 2421 
3 2331 2418 2422 
3 2421 2331 2422 
3 2333 2332 2421 
3 2333 2421 2423 
3 2423 2341 2333 
3 2424 2334 2335 
3 2334 2424 2369 
3 2424 2335 2425 
3 2425 2335 2336 
3 2337 2426 2336 
3 2336 2426 2427 
3 2336 2428 2425 
3 2336 2427 2429 
3 2429 2428 2336 
3 2426 2337 2338 
3 2338 2340 2430 
3 2426 2338 2430 
3 2339 2431 2340 
3 2432 2339 2433 
3 2345 2433 2339 
3 2339 2432 2431 
3 2340 2434 2430 
3 2434 2340 2435 
3 2340 2431 2435 
3 2436 2437 2341 
3 2437 2344 2341 
3 2341 2423 2436 
3 2342 2341 2344 
3 2437 2343 2344 
3 2343 2437 2345 
3 2437 2433 2345 
3 2347 2346 2438 
3 2346 2361 2438 
3 2438 2439 2347 
3 2347 2439 2348 
3 2348 2440 2349 
3 2440 2348 2439 
3 2350 2349 2440 
3 2350 2441 2365 
3 2441 2350 2442 
3 2440 2442 2350 
3 2355 2352 2351 
3 2355 2351 2374 
3 2443 2354 2353 
3 2443 2353 2444 
3 2444 2353 2355 
3 2356 2354 2443 
3 2355 2374 2444 
3 2356 2445 2358 
3 2443 2445 2356 
3 2360 2446 2357 
3 2446 2362 2357 
3 2358 2447 2448 
3 2445 2447 2358 
3 2359 2358 2448 
3 2359 2448 2360 
3 2449 2446 2360 
3 2448 2449 2360 
3 2438 2361 2450 
3 2361 2362 2450 
3 2450 2362 2451 
3 2451 2362 2446 
3 2363 2367 2364 
3 2452 2367 2363 
3 2453 2363 2365 
3 2454 2452 2363 
3 2453 2454 2363 
3 2455 2365 2456 
3 2456 2365 2441 
3 2455 2453 2365 
3 2367 2386 2366 
3 2457 2386 2367 
3 2457 2367 2452 
3 2371 2368 2458 
3 2369 2458 2368 
3 2369 2459 2460 
3 2369 2424 2459 
3 2460 2458 2369 
3 2461 2371 2458 
3 2462 2372 2371 
3 2462 2371 2461 
3 2372 2463 2373 
3 2372 2462 2463 
3 2373 2464 2374 
3 2465 2464 2373 
3 2373 2463 2465 
3 2374 2464 2444 
3 2466 2375 2378 
3 2407 2375 2466 
3 2467 2376 2380 
3 2377 2376 2467 
3 2468 2377 2467 
3 2378 2377 2468 
3 2469 2378 2468 
3 2466 2378 2469 
3 2379 2385 2380 
3 2385 2470 2380 
3 2380 2470 2471 
3 2472 2380 2471 
3 2467 2380 2472 
3 2382 2384 2381 
3 2384 2382 2473 
3 2474 2382 2396 
3 2473 2382 2474 
3 2384 2470 2383 
3 2383 2470 2385 
3 2470 2384 2475 
3 2476 2384 2473 
3 2475 2384 2476 
3 2387 2386 2457 
3 2477 2389 2387 
3 2478 2387 2457 
3 2387 2479 2477 
3 2387 2478 2479 
3 2390 2388 2389 
3 2389 2477 2390 
3 2390 2477 2391 
3 2480 2400 2391 
3 2391 2477 2480 
3 2398 2392 2395 
3 2393 2399 2481 
3 2393 2482 2394 
3 2481 2482 2393 
3 2483 2395 2394 
3 2484 2394 2482 
3 2483 2394 2484 
3 2485 2398 2395 
3 2485 2395 2483 
3 2474 2396 2397 
3 2486 2474 2397 
3 2487 2397 2398 
3 2486 2397 2487 
3 2487 2398 2485 
3 2488 2481 2399 
3 2399 2489 2490 
3 2404 2489 2399 
3 2490 2488 2399 
3 2400 2480 2401 
3 2491 2401 2480 
3 2492 2401 2491 
3 2403 2401 2492 
3 2402 2403 2492 
3 2493 2402 2494 
3 2402 2495 2494 
3 2402 2492 2495 
3 2493 2489 2402 
3 2489 2404 2402 
3 2408 2406 2409 
3 2409 2406 2407 
3 2414 2407 2466 
3 2409 2407 2414 
3 2411 2496 2410 
3 2410 2496 2497 
3 2498 2499 2410 
3 2497 2498 2410 
3 2410 2499 2412 
3 2413 2496 2411 
3 2500 2417 2412 
3 2412 2499 2500 
3 2413 2501 2502 
3 2503 2496 2413 
3 2502 2503 2413 
3 2501 2413 2415 
3 2414 2469 2416 
3 2469 2414 2466 
3 2415 2416 2501 
3 2504 2416 2469 
3 2416 2505 2501 
3 2416 2504 2506 
3 2416 2506 2505 
3 2417 2500 2507 
3 2508 2417 2507 
3 2420 2419 2417 
3 2508 2420 2417 
3 2422 2418 2420 
3 2422 2420 2508 
3 2423 2421 2422 
3 2423 2422 2436 
3 2508 2436 2422 
3 2425 2459 2424 
3 2459 2425 2428 
3 2427 2426 2430 
3 2509 2510 2427 
3 2430 2509 2427 
3 2427 2510 2429 
3 2428 2511 2459 
3 2511 2428 2429 
3 2511 2429 2512 
3 2512 2429 2510 
3 2513 2509 2430 
3 2430 2434 2513 
3 2431 2514 2435 
3 2431 2515 2514 
3 2432 2515 2431 
3 2433 2516 2432 
3 2432 2517 2515 
3 2516 2517 2432 
3 2437 2516 2433 
3 2434 2435 2518 
3 2518 2519 2434 
3 2434 2519 2520 
3 2520 2513 2434 
3 2435 2514 2518 
3 2437 2436 2516 
3 2436 2508 2516 
3 2521 2439 2438 
3 2438 2522 2521 
3 2438 2450 2522 
3 2440 2439 2521 
3 2523 2440 2521 
3 2440 2523 2442 
3 2442 2456 2441 
3 2456 2442 2523 
3 2444 2524 2443 
3 2524 2525 2443 
3 2443 2525 2526 
3 2443 2527 2445 
3 2528 2527 2443 
3 2520 2528 2443 
3 2443 2526 2520 
3 2524 2444 2464 
3 2447 2445 2527 
3 2451 2446 2449 
3 2447 2449 2448 
3 2527 2449 2447 
3 2527 2451 2449 
3 2451 2522 2450 
3 2529 2522 2451 
3 2451 2527 2529 
3 2530 2531 2452 
3 2452 2531 2457 
