NORM_ASCII
1997 3990
3 635 676 608 
3 608 676 677 
3 608 677 609 
3 678 679 609 
3 609 679 668 
3 609 677 678 
3 680 610 611 
3 612 610 680 
3 680 611 620 
3 612 681 682 
3 680 681 612 
3 612 682 614 
3 683 615 613 
3 613 614 683 
3 683 614 682 
3 683 684 615 
3 618 615 684 
3 676 616 617 
3 635 616 676 
3 676 617 677 
3 678 617 618 
3 677 617 678 
3 684 678 618 
3 622 685 619 
3 620 619 685 
3 680 620 686 
3 620 685 686 
3 621 687 622 
3 687 621 627 
3 688 685 622 
3 688 622 687 
3 689 623 630 
3 623 689 690 
3 624 623 690 
3 690 691 624 
3 691 692 624 
3 625 624 692 
3 625 693 626 
3 693 625 692 
3 627 626 693 
3 694 627 693 
3 695 627 694 
3 687 627 695 
3 696 629 628 
3 628 697 696 
3 631 697 628 
3 698 630 629 
3 698 629 696 
3 689 630 698 
3 631 643 699 
3 631 699 697 
3 636 644 637 
3 644 636 700 
3 636 638 700 
3 700 638 701 
3 638 639 701 
3 701 639 702 
3 703 702 639 
3 703 639 640 
3 703 640 641 
3 704 641 645 
3 641 704 703 
3 642 705 643 
3 705 642 706 
3 642 700 706 
3 644 700 642 
3 705 699 643 
3 645 648 707 
3 708 704 645 
3 708 645 707 
3 709 710 646 
3 646 650 711 
3 710 649 646 
3 711 709 646 
3 649 648 647 
3 712 648 713 
3 648 712 707 
3 713 648 649 
3 649 714 713 
3 714 649 710 
3 650 715 711 
3 715 650 716 
3 717 650 651 
3 650 717 716 
3 717 651 718 
3 651 654 718 
3 652 719 653 
3 655 719 652 
3 653 720 654 
3 653 721 720 
3 719 721 653 
3 654 720 722 
3 718 654 722 
3 655 659 723 
3 724 655 723 
3 655 721 719 
3 721 655 724 
3 725 656 666 
3 656 725 657 
3 726 657 725 
3 660 657 726 
3 659 658 723 
3 658 660 723 
3 726 727 660 
3 723 660 727 
3 661 675 728 
3 661 729 665 
3 661 728 730 
3 730 729 661 
3 663 662 731 
3 731 662 664 
3 732 663 733 
3 732 667 663 
3 734 663 731 
3 734 733 663 
3 665 729 664 
3 735 664 729 
3 731 664 735 
3 666 736 737 
3 737 725 666 
3 736 666 667 
3 736 667 738 
3 738 667 732 
3 668 739 669 
3 668 679 739 
3 740 741 669 
3 669 739 740 
3 669 741 742 
3 742 670 669 
3 670 742 671 
3 671 742 672 
3 672 743 673 
3 672 742 744 
3 743 672 744 
3 674 673 743 
3 674 745 675 
3 674 743 745 
3 675 745 746 
3 746 728 675 
3 684 747 678 
3 679 678 747 
3 679 747 740 
3 740 739 679 
3 680 686 748 
3 748 681 680 
3 749 682 681 
3 748 750 681 
3 751 749 681 
3 681 750 751 
3 752 682 749 
3 682 752 683 
3 684 683 753 
3 683 754 753 
3 752 754 683 
3 684 753 747 
3 686 685 688 
3 750 748 686 
3 686 755 750 
3 686 688 756 
3 755 686 756 
3 757 756 687 
3 756 688 687 
3 757 687 695 
3 689 698 758 
3 758 690 689 
3 691 690 759 
3 690 758 760 
3 760 759 690 
3 692 691 761 
3 761 691 759 
3 693 692 762 
3 761 763 692 
3 762 692 763 
3 762 764 693 
3 693 764 694 
3 765 694 764 
3 694 765 695 
3 766 757 695 
3 695 765 766 
3 706 696 705 
3 697 705 696 
3 767 768 696 
3 696 706 767 
3 698 696 768 
3 697 699 705 
3 769 758 698 
3 768 769 698 
3 700 701 706 
3 706 701 770 
3 770 701 702 
3 702 771 770 
3 703 708 702 
3 702 708 771 
3 708 703 704 
3 767 706 770 
3 707 712 772 
3 707 772 708 
3 771 708 772 
3 710 709 773 
3 709 711 774 
3 775 709 774 
3 776 773 709 
3 709 775 776 
3 710 773 714 
3 774 711 715 
3 777 712 713 
3 712 777 778 
3 779 780 712 
3 780 772 712 
3 778 779 712 
3 713 781 777 
3 781 713 714 
3 773 781 714 
3 716 774 715 
3 718 716 717 
3 716 782 774 
3 716 718 783 
3 784 716 783 
3 782 716 784 
3 718 722 785 
3 783 718 785 
3 722 720 785 
3 721 786 720 
3 785 720 786 
3 786 721 724 
3 723 787 788 
3 788 789 723 
3 723 790 791 
3 791 787 723 
3 724 723 789 
3 723 727 790 
3 789 792 724 
3 792 786 724 
3 726 725 737 
3 727 726 737 
3 790 727 737 
3 746 793 728 
3 728 793 730 
3 735 729 794 
3 730 794 729 
3 730 793 795 
3 796 730 797 
3 794 730 796 
3 730 795 797 
3 734 731 735 
3 798 732 733 
3 738 732 798 
3 733 799 798 
3 733 734 799 
3 800 734 735 
3 801 799 734 
3 801 734 800 
3 735 802 800 
3 803 804 735 
3 796 803 735 
3 802 735 804 
3 796 735 794 
3 737 736 791 
3 736 738 791 
3 790 737 791 
3 805 791 738 
3 738 806 805 
3 738 807 808 
3 738 798 799 
3 806 738 808 
3 799 809 738 
3 807 738 809 
3 740 747 753 
3 740 753 754 
3 810 740 754 
3 740 810 741 
3 742 741 810 
3 810 744 742 
3 811 743 744 
3 811 745 743 
3 754 812 744 
3 744 810 754 
3 744 812 813 
3 813 811 744 
3 745 811 746 
3 746 811 814 
3 815 746 814 
3 795 793 746 
3 795 746 815 
3 752 749 751 
3 750 755 751 
3 751 816 752 
3 817 751 818 
3 818 751 755 
3 751 817 816 
3 812 754 752 
3 752 819 820 
3 816 821 752 
3 819 752 821 
3 820 812 752 
3 756 757 755 
3 757 822 755 
3 818 755 822 
3 757 766 823 
3 823 822 757 
3 769 760 758 
3 760 824 759 
3 759 825 761 
3 759 824 825 
3 769 826 760 
3 824 760 826 
3 763 761 827 
3 827 761 825 
3 827 762 763 
3 762 827 828 
3 828 764 762 
3 764 828 829 
3 830 765 764 
3 829 830 764 
3 765 830 831 
3 765 831 832 
3 766 765 832 
3 766 833 823 
3 833 766 832 
3 834 768 767 
3 767 780 834 
3 767 771 780 
3 767 770 771 
3 834 835 768 
3 769 768 835 
3 836 769 835 
3 769 836 826 
3 772 780 771 
3 781 773 776 
3 774 837 775 
3 838 837 774 
3 839 838 774 
3 839 774 782 
3 775 837 840 
3 776 775 840 
3 776 841 781 
3 840 841 776 
3 778 777 842 
3 781 841 777 
3 777 841 843 
3 777 843 842 
3 842 844 778 
3 844 779 778 
3 779 834 780 
3 844 834 779 
3 782 845 839 
3 782 784 846 
3 845 782 847 
3 847 782 846 
3 789 783 785 
3 784 783 848 
3 848 783 789 
3 846 784 848 
3 789 785 792 
3 785 786 792 
3 787 805 788 
3 791 805 787 
3 849 788 805 
3 850 848 788 
3 788 851 850 
3 789 788 848 
3 851 788 849 
3 795 815 852 
3 853 854 795 
3 795 854 855 
3 795 852 853 
3 797 795 856 
3 795 855 857 
3 857 856 795 
3 797 858 796 
3 796 859 803 
3 859 796 860 
3 857 796 858 
3 796 857 861 
3 862 863 796 
3 796 863 860 
3 862 796 861 
3 858 797 856 
3 809 799 864 
3 864 799 801 
3 865 800 866 
3 800 865 801 
3 802 866 800 
3 867 801 865 
3 801 867 868 
3 801 868 869 
3 801 869 864 
3 804 870 802 
3 802 870 866 
3 803 859 804 
3 870 804 859 
3 849 805 871 
3 806 872 805 
3 805 873 874 
3 874 871 805 
3 872 873 805 
3 808 875 806 
3 872 806 875 
3 876 808 807 
3 807 809 877 
3 877 878 807 
3 879 876 807 
3 879 807 878 
3 876 875 808 
3 864 877 809 
3 820 811 813 
3 820 819 811 
3 814 811 819 
3 813 812 820 
3 814 819 880 
3 815 814 880 
3 852 815 880 
3 821 816 817 
3 821 817 881 
3 817 818 882 
3 883 881 817 
3 817 882 883 
3 882 818 822 
3 821 881 819 
3 881 884 819 
3 819 884 885 
3 880 819 885 
3 886 887 822 
3 822 823 886 
3 822 887 882 
3 823 833 888 
3 886 823 888 
3 889 824 826 
3 825 824 889 
3 890 825 889 
3 827 825 890 
3 836 891 826 
3 826 891 889 
3 890 828 827 
3 829 828 892 
3 893 892 828 
3 893 828 890 
3 831 830 829 
3 829 892 894 
3 831 829 895 
3 895 829 894 
3 895 832 831 
3 896 832 895 
3 832 888 833 
3 897 832 896 
3 832 897 888 
3 844 835 834 
3 835 844 891 
3 891 836 835 
3 840 837 898 
3 837 838 898 
3 898 838 899 
3 838 839 899 
3 899 839 845 
3 900 840 901 
3 900 841 840 
3 840 898 901 
3 843 841 900 
3 889 891 842 
3 891 844 842 
3 842 902 903 
3 842 843 902 
3 889 842 903 
3 902 843 900 
3 845 904 899 
3 847 905 845 
3 904 845 905 
3 906 846 907 
3 846 906 847 
3 907 846 848 
3 906 908 847 
3 908 905 847 
3 848 850 907 
3 849 909 851 
3 909 849 910 
3 911 910 849 
3 871 911 849 
3 851 912 850 
3 912 909 850 
3 907 850 909 
3 912 851 909 
3 852 880 913 
3 853 852 913 
3 914 854 853 
3 914 853 915 
3 853 913 916 
3 853 916 917 
3 917 915 853 
3 918 919 854 
3 854 914 918 
3 855 854 919 
3 920 857 855 
3 919 920 855 
3 858 856 857 
3 861 857 921 
3 921 857 920 
3 859 922 870 
3 860 922 859 
3 923 924 860 
3 924 922 860 
3 863 925 860 
3 860 925 926 
3 927 860 926 
3 923 860 927 
3 861 921 928 
3 861 929 862 
3 929 861 928 
3 930 863 862 
3 931 930 862 
3 931 862 929 
3 930 925 863 
3 932 864 933 
3 932 877 864 
3 864 869 933 
3 865 866 867 
3 866 934 867 
3 866 870 935 
3 866 935 934 
3 867 934 936 
3 867 937 868 
3 936 938 867 
3 867 939 940 
3 867 940 937 
3 867 941 942 
3 939 867 942 
3 867 938 941 
3 933 869 868 
3 879 868 937 
3 879 878 868 
3 878 933 868 
3 870 922 924 
3 924 943 870 
3 935 870 943 
3 944 871 874 
3 911 871 944 
3 872 875 876 
3 945 872 876 
3 873 872 946 
3 946 872 945 
3 947 874 873 
3 947 873 946 
3 944 874 947 
3 876 948 945 
3 949 876 879 
3 876 949 950 
3 876 950 948 
3 877 932 933 
3 933 878 877 
3 951 952 879 
3 879 953 951 
3 952 949 879 
3 879 937 940 
3 879 940 953 
3 885 954 880 
3 955 880 954 
3 913 880 955 
3 881 883 956 
3 884 881 956 
3 882 887 957 
3 957 956 882 
3 956 883 882 
3 956 885 884 
3 954 885 956 
3 886 958 887 
3 886 888 959 
3 886 959 960 
3 961 962 886 
3 960 963 886 
3 962 958 886 
3 963 961 886 
3 957 887 958 
3 897 959 888 
3 889 903 890 
3 903 964 890 
3 893 890 964 
3 965 892 893 
3 892 965 894 
3 893 894 965 
3 964 966 893 
3 967 893 966 
3 894 893 967 
3 895 894 967 
3 968 895 967 
3 896 895 968 
3 969 896 968 
3 970 896 969 
3 970 897 896 
3 960 959 897 
3 971 960 897 
3 971 897 970 
3 901 898 972 
3 898 899 972 
3 973 974 899 
3 974 972 899 
3 973 899 904 
3 900 901 902 
3 975 901 972 
3 975 902 901 
3 903 902 975 
3 964 903 976 
3 975 976 903 
3 904 977 973 
3 904 978 977 
3 905 978 904 
3 979 978 905 
3 905 980 979 
3 980 905 908 
3 907 908 906 
3 907 981 980 
3 908 907 980 
3 909 981 907 
3 910 981 909 
3 981 910 982 
3 983 982 910 
3 911 983 910 
3 944 984 911 
3 983 911 984 
3 913 955 985 
3 913 985 986 
3 986 916 913 
3 915 918 914 
3 915 987 919 
3 919 918 915 
3 915 988 989 
3 989 987 915 
3 915 917 988 
3 917 916 986 
3 986 990 917 
3 988 917 990 
3 987 991 919 
3 991 920 919 
3 921 920 991 
3 921 991 992 
3 993 921 992 
3 993 928 921 
3 923 943 924 
3 923 994 943 
3 927 994 923 
3 930 995 925 
3 995 926 925 
3 926 996 927 
3 996 926 997 
3 995 997 926 
3 994 927 998 
3 998 927 999 
3 996 999 927 
3 929 928 1000 
3 993 1001 928 
3 1000 928 1001 
3 1002 931 929 
3 1002 929 1000 
3 931 995 930 
3 931 1003 995 
3 1003 931 1002 
3 934 935 943 
3 936 934 943 
3 936 943 1004 
3 1005 938 936 
3 936 1004 1005 
3 941 938 1005 
3 953 940 939 
3 1006 939 942 
3 939 1006 953 
3 1007 942 941 
3 1007 941 1005 
3 1007 1006 942 
3 943 1008 1004 
3 943 1009 1008 
3 1009 943 994 
3 1010 984 944 
3 1011 1010 944 
3 944 947 1011 
3 1012 945 948 
3 1013 945 1012 
3 945 1014 946 
3 1014 945 1013 
3 947 946 1015 
3 1015 946 1014 
3 947 1015 1011 
3 1012 948 950 
3 952 950 949 
3 1016 950 952 
3 1013 1012 950 
3 1016 1013 950 
3 952 951 1016 
3 951 1017 1016 
3 1017 951 1018 
3 1019 951 1020 
3 951 1021 1018 
3 951 1019 1021 
3 953 1020 951 
3 953 1006 1020 
3 1022 954 956 
3 985 955 954 
3 985 954 1022 
3 1022 956 1023 
3 956 957 1023 
3 957 958 1024 
3 957 1024 1023 
3 958 962 961 
3 958 963 1025 
3 958 961 963 
3 1024 958 1025 
3 971 963 960 
3 963 971 1026 
3 1025 963 1026 
3 976 966 964 
3 1027 966 976 
3 967 966 1027 
3 1027 1028 967 
3 967 1029 968 
3 1029 967 1028 
3 1030 969 968 
3 1030 968 1029 
3 969 1031 970 
3 1032 1031 969 
3 1033 1032 969 
3 1033 969 1030 
3 970 1034 971 
3 1034 970 1031 
3 1026 971 1034 
3 974 975 972 
3 974 973 1027 
3 973 977 1035 
3 1027 973 1035 
3 974 976 975 
3 976 974 1027 
3 979 1036 977 
3 1037 1035 977 
3 977 978 979 
3 977 1036 1037 
3 980 982 979 
3 1036 979 1038 
3 1038 979 982 
3 980 981 982 
3 983 1038 982 
3 1039 1038 983 
3 984 1040 983 
3 1039 983 1040 
3 1040 984 1010 
3 986 985 1022 
3 1022 1041 986 
3 990 986 1041 
3 992 991 987 
3 989 1042 987 
3 987 1042 992 
3 1042 989 988 
3 1043 988 990 
3 988 1044 1042 
3 1043 1045 988 
3 988 1045 1044 
3 1043 990 1041 
3 992 1046 993 
3 1042 1044 992 
3 992 1044 1047 
3 1048 1046 992 
3 1047 1048 992 
3 1001 993 1046 
3 998 1049 994 
3 994 1050 1009 
3 1051 1050 994 
3 994 1049 1051 
3 1003 1052 995 
3 995 1052 997 
3 1052 1053 996 
3 1052 996 997 
3 996 1053 999 
3 1049 998 1053 
3 1053 998 999 
3 1000 1054 1002 
3 1055 1054 1000 
3 1000 1001 1056 
3 1056 1055 1000 
3 1046 1048 1001 
3 1056 1001 1048 
3 1002 1054 1003 
3 1057 1003 1058 
3 1055 1059 1003 
3 1003 1054 1055 
3 1003 1057 1052 
3 1003 1059 1058 
3 1005 1004 1008 
3 1060 1061 1005 
3 1005 1008 1060 
3 1005 1062 1007 
3 1062 1005 1061 
3 1006 1063 1020 
3 1006 1007 1063 
3 1007 1062 1063 
3 1050 1008 1009 
3 1008 1064 1060 
3 1064 1008 1050 
3 1010 1065 1040 
3 1066 1065 1010 
3 1010 1067 1066 
3 1011 1068 1010 
3 1067 1010 1068 
3 1069 1011 1015 
3 1069 1070 1011 
3 1068 1011 1070 
3 1071 1013 1072 
3 1072 1013 1016 
3 1013 1071 1014 
3 1015 1014 1071 
3 1015 1071 1069 
3 1017 1072 1016 
3 1018 1073 1017 
3 1073 1074 1017 
3 1075 1072 1017 
3 1075 1017 1074 
3 1018 1076 1073 
3 1076 1018 1021 
3 1020 1077 1019 
3 1077 1078 1019 
3 1019 1079 1080 
3 1019 1080 1081 
3 1021 1019 1081 
3 1079 1019 1078 
3 1020 1082 1077 
3 1083 1082 1020 
3 1020 1063 1083 
3 1084 1021 1081 
3 1021 1084 1076 
3 1023 1085 1022 
3 1086 1022 1085 
3 1041 1022 1086 
3 1087 1023 1088 
3 1089 1090 1023 
3 1087 1085 1023 
3 1023 1024 1091 
3 1023 1090 1092 
3 1023 1092 1088 
3 1089 1023 1091 
3 1025 1091 1024 
3 1093 1094 1025 
3 1093 1025 1095 
3 1096 1025 1026 
3 1094 1097 1025 
3 1025 1096 1095 
3 1025 1097 1091 
3 1034 1098 1026 
3 1099 1096 1026 
3 1026 1098 1099 
3 1035 1100 1027 
3 1028 1027 1100 
3 1029 1028 1100 
3 1030 1029 1100 
3 1101 1033 1030 
3 1100 1102 1030 
3 1030 1102 1103 
3 1030 1103 1104 
3 1101 1030 1104 
3 1034 1031 1032 
3 1034 1032 1105 
3 1105 1032 1033 
3 1105 1033 1101 
3 1098 1034 1105 
3 1037 1100 1035 
3 1106 1037 1036 
3 1036 1038 1106 
3 1100 1037 1107 
3 1108 1037 1106 
3 1107 1037 1108 
3 1039 1106 1038 
3 1039 1040 1109 
3 1109 1106 1039 
3 1109 1040 1110 
3 1110 1040 1065 
3 1043 1041 1086 
3 1111 1043 1086 
3 1112 1043 1111 
3 1043 1112 1113 
3 1113 1045 1043 
3 1114 1044 1115 
3 1116 1115 1044 
3 1044 1045 1116 
3 1047 1044 1114 
3 1116 1045 1117 
3 1118 1119 1045 
3 1120 1117 1045 
3 1118 1045 1113 
3 1120 1045 1119 
3 1121 1122 1047 
3 1047 1114 1123 
3 1121 1047 1123 
3 1122 1048 1047 
3 1048 1122 1056 
3 1124 1049 1057 
3 1053 1057 1049 
3 1051 1049 1125 
3 1125 1049 1124 
3 1050 1051 1064 
3 1051 1125 1126 
3 1127 1064 1051 
3 1051 1126 1127 
3 1053 1052 1057 
3 1056 1059 1055 
3 1122 1128 1056 
3 1059 1056 1129 
3 1130 1056 1128 
3 1130 1129 1056 
3 1058 1131 1057 
3 1057 1131 1124 
3 1059 1132 1058 
3 1058 1132 1131 
3 1133 1059 1134 
3 1134 1059 1129 
3 1133 1132 1059 
3 1060 1135 1061 
3 1060 1064 1135 
3 1061 1136 1062 
3 1061 1137 1136 
3 1137 1061 1135 
3 1062 1138 1063 
3 1139 1062 1136 
3 1139 1140 1062 
3 1140 1138 1062 
3 1083 1063 1141 
3 1063 1138 1141 
3 1135 1064 1127 
3 1066 1142 1065 
3 1065 1142 1143 
3 1110 1065 1143 
3 1144 1142 1066 
3 1067 1144 1066 
3 1145 1067 1068 
3 1144 1067 1146 
3 1067 1145 1147 
3 1147 1146 1067 
3 1068 1070 1148 
3 1145 1068 1148 
3 1149 1069 1071 
3 1148 1070 1069 
3 1148 1069 1149 
3 1075 1071 1072 
3 1071 1075 1149 
3 1074 1073 1150 
3 1150 1073 1076 
3 1074 1150 1075 
3 1075 1151 1148 
3 1152 1075 1150 
3 1151 1075 1152 
3 1148 1149 1075 
3 1153 1150 1076 
3 1076 1084 1153 
3 1154 1078 1077 
3 1077 1155 1156 
3 1157 1155 1077 
3 1157 1077 1082 
3 1154 1077 1156 
3 1079 1078 1154 
3 1080 1079 1154 
3 1081 1080 1158 
3 1154 1158 1080 
3 1158 1084 1081 
3 1159 1082 1083 
3 1082 1159 1157 
3 1083 1160 1159 
3 1160 1083 1141 
3 1084 1161 1162 
3 1162 1153 1084 
3 1084 1158 1161 
3 1085 1087 1086 
3 1086 1087 1163 
3 1086 1163 1111 
3 1088 1164 1087 
3 1164 1165 1087 
3 1087 1165 1163 
3 1164 1088 1166 
3 1092 1166 1088 
3 1089 1167 1090 
3 1167 1089 1168 
3 1089 1091 1168 
3 1167 1092 1090 
3 1168 1091 1097 
3 1167 1166 1092 
3 1093 1169 1094 
3 1099 1098 1093 
3 1095 1099 1093 
3 1105 1093 1098 
3 1169 1093 1170 
3 1170 1093 1105 
3 1094 1171 1097 
3 1168 1094 1166 
3 1094 1172 1166 
3 1168 1171 1094 
3 1173 1094 1169 
3 1172 1094 1173 
3 1095 1096 1099 
3 1097 1174 1168 
3 1171 1174 1097 
3 1102 1100 1107 
3 1101 1175 1105 
3 1104 1175 1101 
3 1103 1102 1107 
3 1104 1103 1107 
3 1104 1107 1176 
3 1175 1104 1177 
3 1176 1177 1104 
3 1105 1175 1178 
3 1105 1178 1179 
3 1179 1180 1105 
3 1105 1181 1170 
3 1105 1180 1181 
3 1106 1109 1108 
3 1107 1108 1176 
3 1176 1108 1182 
3 1110 1108 1109 
3 1110 1182 1108 
3 1143 1182 1110 
3 1111 1166 1112 
3 1166 1111 1165 
3 1165 1111 1163 
3 1112 1166 1172 
3 1172 1183 1112 
3 1183 1113 1112 
3 1184 1113 1183 
3 1118 1113 1184 
3 1115 1123 1114 
3 1115 1185 1186 
3 1115 1186 1187 
3 1188 1123 1115 
3 1115 1116 1189 
3 1115 1189 1185 
3 1187 1188 1115 
3 1116 1117 1189 
3 1189 1117 1120 
3 1119 1118 1184 
3 1184 1185 1119 
3 1185 1120 1119 
3 1189 1120 1185 
3 1122 1121 1190 
3 1191 1192 1121 
3 1192 1193 1121 
3 1121 1123 1191 
3 1121 1193 1190 
3 1194 1128 1122 
3 1195 1194 1122 
3 1195 1122 1190 
3 1188 1191 1123 
3 1124 1131 1196 
3 1196 1197 1124 
3 1125 1124 1197 
3 1198 1125 1199 
3 1198 1126 1125 
3 1199 1125 1197 
3 1127 1126 1200 
3 1200 1126 1198 
3 1127 1200 1201 
3 1202 1135 1127 
3 1202 1127 1201 
3 1130 1128 1194 
3 1203 1134 1129 
3 1129 1130 1204 
3 1129 1204 1203 
3 1194 1205 1130 
3 1205 1204 1130 
3 1132 1206 1131 
3 1131 1206 1196 
3 1206 1132 1133 
3 1134 1207 1133 
3 1208 1206 1133 
3 1209 1133 1207 
3 1210 1208 1133 
3 1133 1209 1210 
3 1134 1203 1207 
3 1135 1202 1137 
3 1136 1137 1139 
3 1137 1202 1139 
3 1140 1141 1138 
3 1140 1139 1211 
3 1212 1213 1139 
3 1139 1213 1211 
3 1202 1212 1139 
3 1141 1140 1214 
3 1214 1140 1211 
3 1141 1214 1160 
3 1142 1146 1143 
3 1146 1142 1144 
3 1143 1215 1182 
3 1215 1143 1216 
3 1216 1143 1146 
3 1151 1217 1145 
3 1145 1148 1151 
3 1147 1145 1217 
3 1218 1216 1146 
3 1218 1146 1219 
3 1146 1147 1220 
3 1219 1146 1220 
3 1220 1147 1221 
3 1217 1221 1147 
3 1150 1222 1152 
3 1223 1150 1153 
3 1150 1223 1222 
3 1224 1151 1152 
3 1217 1151 1224 
3 1225 1226 1152 
3 1152 1222 1225 
3 1152 1226 1224 
3 1153 1162 1223 
3 1156 1227 1154 
3 1228 1158 1154 
3 1228 1154 1227 
3 1229 1156 1155 
3 1155 1157 1230 
3 1230 1231 1155 
3 1232 1229 1155 
3 1232 1155 1231 
3 1227 1156 1229 
3 1233 1157 1234 
3 1230 1157 1233 
3 1157 1159 1234 
3 1235 1158 1236 
3 1236 1158 1228 
3 1158 1235 1161 
3 1159 1237 1234 
3 1213 1159 1160 
3 1238 1237 1159 
3 1213 1212 1159 
3 1159 1212 1238 
3 1160 1214 1213 
3 1223 1162 1161 
3 1239 1223 1161 
3 1161 1240 1241 
3 1240 1161 1235 
3 1161 1241 1239 
3 1166 1165 1164 
3 1166 1167 1168 
3 1168 1174 1171 
3 1170 1242 1169 
3 1169 1243 1173 
3 1243 1169 1244 
3 1242 1244 1169 
3 1242 1170 1181 
3 1172 1173 1245 
3 1245 1183 1172 
3 1245 1173 1243 
3 1246 1178 1175 
3 1246 1175 1177 
3 1247 1248 1176 
3 1247 1176 1182 
3 1176 1248 1177 
3 1246 1177 1248 
3 1178 1246 1248 
3 1179 1178 1249 
3 1248 1250 1178 
3 1249 1178 1250 
3 1179 1251 1180 
3 1251 1179 1249 
3 1251 1252 1180 
3 1253 1180 1252 
3 1254 1255 1180 
3 1254 1180 1253 
3 1255 1181 1180 
3 1242 1181 1255 
3 1215 1256 1182 
3 1182 1256 1247 
3 1183 1257 1184 
3 1183 1245 1258 
3 1183 1258 1257 
3 1259 1184 1257 
3 1185 1184 1259 
3 1185 1259 1186 
3 1260 1186 1261 
3 1186 1259 1261 
3 1186 1260 1262 
3 1186 1262 1187 
3 1263 1187 1264 
3 1263 1188 1187 
3 1262 1264 1187 
3 1188 1263 1191 
3 1195 1190 1265 
3 1190 1266 1267 
3 1268 1266 1190 
3 1267 1265 1190 
3 1190 1193 1268 
3 1192 1191 1269 
3 1269 1191 1263 
3 1193 1192 1270 
3 1269 1270 1192 
3 1270 1271 1193 
3 1272 1193 1271 
3 1268 1193 1272 
3 1205 1194 1195 
3 1273 1195 1265 
3 1195 1273 1274 
3 1195 1274 1205 
3 1196 1208 1275 
3 1196 1275 1197 
3 1208 1196 1206 
3 1199 1197 1275 
3 1199 1276 1198 
3 1277 1198 1276 
3 1200 1198 1277 
3 1278 1279 1199 
3 1199 1275 1278 
3 1280 1276 1199 
3 1280 1199 1281 
3 1281 1199 1279 
3 1277 1282 1200 
3 1201 1200 1283 
3 1283 1200 1282 
3 1284 1202 1201 
3 1201 1283 1284 
3 1212 1202 1284 
3 1205 1285 1203 
3 1203 1204 1205 
3 1203 1285 1207 
3 1205 1286 1285 
3 1205 1287 1286 
3 1287 1205 1274 
3 1207 1288 1209 
3 1288 1207 1285 
3 1278 1275 1208 
3 1208 1210 1278 
3 1210 1209 1288 
3 1210 1289 1290 
3 1278 1210 1290 
3 1288 1289 1210 
3 1214 1211 1213 
3 1238 1212 1284 
3 1256 1215 1291 
3 1291 1215 1216 
3 1291 1216 1218 
3 1224 1292 1217 
3 1293 1217 1292 
3 1221 1217 1293 
3 1294 1291 1218 
3 1294 1218 1295 
3 1218 1219 1295 
3 1220 1296 1219 
3 1297 1219 1296 
3 1297 1295 1219 
3 1296 1220 1221 
3 1298 1221 1293 
3 1296 1221 1299 
3 1298 1299 1221 
3 1300 1222 1301 
3 1302 1222 1300 
3 1223 1301 1222 
3 1225 1222 1302 
3 1239 1303 1223 
3 1303 1301 1223 
3 1224 1226 1292 
3 1226 1225 1304 
3 1225 1302 1304 
3 1305 1226 1304 
3 1305 1292 1226 
3 1227 1229 1306 
3 1306 1228 1227 
3 1236 1228 1306 
3 1232 1306 1229 
3 1231 1230 1307 
3 1230 1233 1308 
3 1308 1309 1230 
3 1309 1307 1230 
3 1310 1232 1231 
3 1311 1310 1231 
3 1312 1313 1231 
3 1231 1307 1312 
3 1313 1311 1231 
3 1232 1314 1315 
3 1306 1232 1315 
3 1232 1310 1314 
3 1234 1316 1233 
3 1308 1233 1316 
3 1317 1234 1237 
3 1317 1316 1234 
3 1235 1236 1315 
3 1235 1318 1240 
3 1318 1235 1315 
3 1306 1315 1236 
3 1237 1238 1319 
3 1320 1237 1319 
3 1317 1237 1320 
3 1321 1322 1238 
3 1238 1284 1321 
3 1322 1319 1238 
3 1303 1239 1300 
3 1300 1239 1302 
3 1239 1241 1302 
3 1323 1241 1240 
3 1324 1325 1240 
3 1318 1324 1240 
3 1326 1240 1325 
3 1327 1240 1326 
3 1240 1327 1323 
3 1302 1241 1323 
3 1258 1244 1242 
3 1328 1329 1242 
3 1330 1258 1242 
3 1255 1331 1242 
3 1329 1330 1242 
3 1242 1331 1328 
3 1245 1243 1244 
3 1258 1245 1244 
3 1250 1248 1247 
3 1250 1247 1332 
3 1332 1247 1256 
3 1333 1251 1249 
3 1249 1250 1334 
3 1334 1333 1249 
3 1250 1332 1335 
3 1334 1250 1335 
3 1251 1333 1252 
3 1336 1252 1333 
3 1252 1336 1253 
3 1253 1336 1337 
3 1337 1254 1253 
3 1254 1338 1255 
3 1254 1339 1340 
3 1340 1338 1254 
3 1254 1337 1339 
3 1255 1341 1342 
3 1338 1341 1255 
3 1331 1255 1342 
3 1335 1332 1256 
3 1343 1335 1256 
3 1256 1291 1344 
3 1343 1256 1344 
3 1330 1257 1258 
3 1345 1259 1257 
3 1257 1330 1346 
3 1345 1257 1346 
3 1261 1259 1345 
3 1260 1261 1345 
3 1345 1347 1260 
3 1348 1260 1347 
3 1348 1262 1260 
3 1264 1262 1348 
3 1263 1264 1349 
3 1270 1269 1263 
3 1263 1349 1350 
3 1270 1263 1350 
3 1264 1348 1351 
3 1351 1349 1264 
3 1273 1265 1352 
3 1265 1267 1353 
3 1353 1352 1265 
3 1354 1267 1266 
3 1266 1268 1354 
3 1354 1353 1267 
3 1354 1268 1272 
3 1270 1350 1355 
3 1271 1270 1355 
3 1355 1272 1271 
3 1272 1355 1356 
3 1356 1354 1272 
3 1357 1358 1273 
3 1359 1273 1358 
3 1273 1359 1274 
3 1352 1357 1273 
3 1287 1274 1359 
3 1276 1280 1360 
3 1277 1276 1361 
3 1361 1276 1360 
3 1282 1277 1361 
3 1279 1278 1290 
3 1362 1279 1289 
3 1279 1290 1289 
3 1363 1281 1279 
3 1364 1365 1279 
3 1366 1279 1362 
3 1363 1279 1367 
3 1364 1279 1366 
3 1279 1365 1367 
3 1368 1360 1280 
3 1280 1281 1368 
3 1368 1281 1363 
3 1369 1282 1361 
3 1283 1282 1369 
3 1370 1283 1369 
3 1284 1283 1371 
3 1283 1370 1371 
3 1284 1372 1321 
3 1371 1372 1284 
3 1285 1286 1373 
3 1373 1288 1285 
3 1373 1286 1287 
3 1287 1374 1375 
3 1373 1287 1375 
3 1287 1359 1376 
3 1376 1374 1287 
3 1373 1377 1288 
3 1378 1289 1288 
3 1377 1378 1288 
3 1289 1378 1379 
3 1379 1362 1289 
3 1344 1291 1294 
3 1293 1292 1305 
3 1298 1293 1305 
3 1380 1344 1294 
3 1381 1294 1295 
3 1381 1380 1294 
3 1381 1295 1382 
3 1382 1295 1297 
3 1383 1296 1299 
3 1296 1383 1297 
3 1384 1297 1383 
3 1382 1297 1384 
3 1305 1385 1298 
3 1298 1386 1299 
3 1385 1386 1298 
3 1383 1299 1387 
3 1299 1388 1387 
3 1388 1299 1386 
3 1300 1301 1303 
3 1323 1389 1302 
3 1304 1302 1389 
3 1304 1390 1391 
3 1305 1304 1391 
3 1327 1390 1304 
3 1304 1389 1327 
3 1305 1392 1393 
3 1385 1305 1393 
3 1392 1305 1391 
3 1307 1317 1394 
3 1394 1312 1307 
3 1317 1307 1309 
3 1309 1308 1317 
3 1308 1316 1317 
3 1318 1314 1310 
3 1318 1310 1311 
3 1324 1318 1311 
3 1324 1311 1313 
3 1395 1313 1312 
3 1312 1394 1395 
3 1313 1395 1324 
3 1315 1314 1318 
3 1396 1397 1317 
3 1398 1396 1317 
3 1317 1320 1398 
3 1394 1317 1397 
3 1399 1320 1319 
3 1400 1401 1319 
3 1319 1322 1400 
3 1319 1401 1402 
3 1402 1399 1319 
3 1398 1320 1399 
3 1321 1403 1322 
3 1403 1321 1372 
3 1403 1404 1322 
3 1405 1400 1322 
3 1405 1322 1404 
3 1323 1327 1389 
3 1324 1406 1325 
3 1395 1407 1324 
3 1406 1324 1407 
3 1325 1406 1408 
3 1326 1325 1408 
3 1327 1326 1390 
3 1390 1326 1409 
3 1409 1326 1408 
3 1328 1410 1329 
3 1411 1410 1328 
3 1412 1411 1328 
3 1331 1412 1328 
3 1346 1330 1329 
3 1346 1329 1410 
3 1331 1346 1412 
3 1413 1331 1342 
3 1346 1331 1414 
3 1413 1414 1331 
3 1333 1334 1415 
3 1336 1333 1415 
3 1335 1415 1334 
3 1335 1343 1415 
3 1336 1415 1416 
3 1416 1417 1336 
3 1337 1336 1417 
3 1417 1418 1337 
3 1337 1418 1339 
3 1419 1341 1338 
3 1338 1340 1419 
3 1340 1339 1420 
3 1420 1339 1421 
3 1421 1339 1418 
3 1419 1340 1342 
3 1422 1342 1340 
3 1423 1422 1340 
3 1424 1340 1425 
3 1423 1340 1424 
3 1340 1420 1425 
3 1342 1341 1419 
3 1413 1342 1422 
3 1415 1343 1344 
3 1344 1380 1415 
3 1414 1347 1345 
3 1345 1346 1414 
3 1410 1412 1346 
3 1414 1348 1347 
3 1351 1348 1414 
3 1426 1349 1351 
3 1350 1349 1426 
3 1350 1426 1427 
3 1427 1355 1350 
3 1426 1351 1428 
3 1351 1414 1428 
3 1353 1429 1352 
3 1357 1352 1430 
3 1429 1431 1352 
3 1431 1432 1352 
3 1433 1430 1352 
3 1352 1432 1433 
3 1434 1435 1353 
3 1434 1353 1354 
3 1353 1435 1431 
3 1431 1429 1353 
3 1436 1354 1437 
3 1354 1438 1437 
3 1434 1354 1436 
3 1438 1354 1356 
3 1355 1427 1439 
3 1356 1355 1439 
3 1356 1440 1441 
3 1441 1442 1356 
3 1440 1356 1439 
3 1438 1356 1442 
3 1358 1357 1430 
3 1430 1433 1358 
3 1433 1443 1358 
3 1359 1358 1443 
3 1444 1359 1443 
3 1445 1446 1359 
3 1446 1376 1359 
3 1359 1444 1445 
3 1447 1360 1368 
3 1360 1447 1370 
3 1370 1361 1360 
3 1370 1369 1361 
3 1362 1448 1366 
3 1448 1362 1379 
3 1367 1368 1363 
3 1449 1365 1364 
3 1364 1450 1449 
3 1364 1366 1450 
3 1449 1451 1365 
3 1367 1365 1451 
3 1452 1450 1366 
3 1366 1448 1452 
3 1451 1368 1367 
3 1368 1451 1447 
3 1370 1453 1454 
3 1447 1453 1370 
3 1454 1371 1370 
3 1371 1454 1372 
3 1454 1403 1372 
3 1455 1377 1373 
3 1456 1455 1373 
3 1373 1375 1456 
3 1374 1457 1375 
3 1374 1376 1446 
3 1374 1446 1457 
3 1375 1457 1456 
3 1378 1377 1448 
3 1377 1458 1448 
3 1458 1377 1459 
3 1455 1459 1377 
3 1448 1379 1378 
3 1460 1415 1380 
3 1461 1380 1381 
3 1462 1380 1461 
3 1460 1380 1462 
3 1463 1464 1381 
3 1381 1464 1465 
3 1382 1463 1381 
3 1465 1461 1381 
3 1463 1382 1466 
3 1384 1466 1382 
3 1383 1387 1384 
3 1467 1384 1387 
3 1464 1466 1384 
3 1468 1384 1467 
3 1464 1384 1468 
3 1469 1386 1385 
3 1393 1469 1385 
3 1386 1469 1388 
3 1469 1470 1387 
3 1387 1388 1469 
3 1467 1387 1470 
3 1471 1391 1390 
3 1471 1390 1409 
3 1472 1391 1473 
3 1472 1392 1391 
3 1391 1471 1473 
3 1392 1472 1393 
3 1470 1469 1393 
3 1474 1470 1393 
3 1472 1474 1393 
3 1475 1476 1394 
3 1476 1395 1394 
3 1477 1394 1397 
3 1475 1394 1477 
3 1476 1407 1395 
3 1397 1396 1398 
3 1397 1398 1478 
3 1397 1478 1477 
3 1478 1398 1399 
3 1477 1478 1399 
3 1399 1402 1479 
3 1479 1480 1399 
3 1477 1399 1480 
3 1400 1481 1401 
3 1400 1482 1481 
3 1405 1482 1400 
3 1401 1481 1483 
3 1402 1401 1483 
3 1483 1484 1402 
3 1402 1484 1479 
3 1403 1454 1485 
3 1404 1403 1485 
3 1486 1404 1485 
3 1482 1404 1486 
3 1482 1405 1404 
3 1408 1406 1487 
3 1407 1487 1406 
3 1407 1476 1487 
3 1488 1409 1408 
3 1408 1489 1488 
3 1487 1489 1408 
3 1490 1409 1488 
3 1409 1490 1471 
3 1410 1411 1412 
3 1414 1413 1428 
3 1428 1413 1422 
3 1460 1491 1415 
3 1416 1415 1491 
3 1417 1416 1491 
3 1418 1417 1492 
3 1417 1491 1492 
3 1418 1493 1421 
3 1494 1418 1492 
3 1493 1418 1494 
3 1425 1420 1495 
3 1495 1420 1496 
3 1420 1421 1496 
3 1496 1421 1497 
3 1421 1493 1497 
3 1428 1422 1498 
3 1498 1422 1423 
3 1424 1498 1423 
3 1499 1424 1425 
3 1424 1500 1498 
3 1424 1499 1501 
3 1500 1424 1501 
3 1495 1502 1425 
3 1425 1502 1499 
3 1428 1427 1426 
3 1503 1427 1428 
3 1427 1504 1439 
3 1504 1427 1503 
3 1503 1428 1505 
3 1498 1505 1428 
3 1431 1435 1506 
3 1431 1507 1432 
3 1506 1507 1431 
3 1432 1508 1509 
3 1509 1510 1432 
3 1511 1432 1507 
3 1508 1432 1511 
3 1510 1433 1432 
3 1443 1433 1444 
3 1444 1433 1510 
3 1435 1434 1506 
3 1436 1512 1434 
3 1506 1434 1512 
3 1437 1513 1436 
3 1436 1513 1512 
3 1514 1513 1437 
3 1437 1515 1514 
3 1438 1515 1437 
3 1442 1516 1438 
3 1438 1516 1515 
3 1439 1504 1517 
3 1517 1440 1439 
3 1441 1440 1518 
3 1518 1440 1517 
3 1441 1518 1519 
3 1520 1521 1441 
3 1519 1520 1441 
3 1441 1521 1442 
3 1442 1522 1516 
3 1442 1521 1522 
3 1445 1444 1523 
3 1444 1524 1525 
3 1444 1526 1527 
3 1527 1524 1444 
3 1526 1444 1510 
3 1444 1525 1528 
3 1528 1529 1444 
3 1444 1529 1523 
3 1446 1445 1530 
3 1523 1530 1445 
3 1531 1457 1446 
3 1446 1530 1531 
3 1447 1451 1532 
3 1453 1447 1532 
3 1458 1452 1448 
3 1533 1449 1450 
3 1449 1533 1451 
3 1534 1533 1450 
3 1534 1450 1452 
3 1535 1532 1451 
3 1451 1533 1535 
3 1452 1536 1534 
3 1536 1452 1458 
3 1454 1453 1537 
3 1532 1537 1453 
3 1454 1537 1485 
3 1459 1455 1531 
3 1531 1455 1456 
3 1531 1456 1457 
3 1538 1458 1459 
3 1458 1538 1539 
3 1458 1539 1536 
3 1459 1540 1538 
3 1459 1523 1541 
3 1541 1540 1459 
3 1459 1530 1523 
3 1531 1530 1459 
3 1492 1491 1460 
3 1492 1460 1494 
3 1494 1460 1462 
3 1542 1543 1461 
3 1461 1543 1462 
3 1542 1461 1465 
3 1462 1544 1545 
3 1462 1545 1494 
3 1544 1462 1543 
3 1466 1464 1463 
3 1468 1546 1464 
3 1546 1465 1464 
3 1542 1465 1546 
3 1467 1547 1468 
3 1547 1467 1470 
3 1546 1468 1548 
3 1468 1547 1549 
3 1548 1468 1549 
3 1470 1474 1547 
3 1550 1473 1471 
3 1471 1490 1550 
3 1473 1551 1472 
3 1474 1472 1551 
3 1473 1552 1553 
3 1553 1551 1473 
3 1473 1550 1552 
3 1547 1474 1554 
3 1551 1555 1474 
3 1554 1474 1555 
3 1556 1476 1475 
3 1557 1558 1475 
3 1475 1477 1557 
3 1559 1475 1558 
3 1556 1475 1559 
3 1487 1476 1560 
3 1556 1561 1476 
3 1476 1561 1560 
3 1562 1557 1477 
3 1477 1480 1562 
3 1484 1563 1479 
3 1479 1563 1564 
3 1564 1480 1479 
3 1480 1565 1562 
3 1480 1564 1565 
3 1483 1481 1566 
3 1481 1567 1566 
3 1482 1567 1481 
3 1486 1567 1482 
3 1566 1568 1483 
3 1483 1568 1484 
3 1563 1484 1569 
3 1484 1568 1569 
3 1570 1485 1537 
3 1485 1570 1571 
3 1485 1572 1573 
3 1485 1571 1574 
3 1574 1575 1485 
3 1485 1575 1572 
3 1485 1573 1486 
3 1486 1573 1576 
3 1577 1486 1576 
3 1578 1567 1486 
3 1486 1577 1578 
3 1579 1489 1487 
3 1560 1580 1487 
3 1487 1580 1579 
3 1581 1490 1488 
3 1581 1488 1582 
3 1489 1582 1488 
3 1489 1579 1582 
3 1550 1490 1583 
3 1583 1490 1581 
3 1493 1494 1584 
3 1584 1585 1493 
3 1497 1493 1585 
3 1586 1584 1494 
3 1494 1545 1586 
3 1496 1587 1495 
3 1495 1587 1588 
3 1495 1588 1589 
3 1589 1502 1495 
3 1496 1590 1587 
3 1497 1591 1496 
3 1592 1496 1591 
3 1496 1592 1590 
3 1593 1497 1594 
3 1497 1585 1594 
3 1591 1497 1593 
3 1595 1498 1596 
3 1595 1505 1498 
3 1500 1596 1498 
3 1501 1499 1589 
3 1589 1499 1502 
3 1597 1500 1501 
3 1598 1596 1500 
3 1598 1500 1597 
3 1501 1589 1597 
3 1599 1503 1505 
3 1504 1503 1599 
3 1600 1504 1599 
3 1504 1600 1517 
3 1505 1601 1599 
3 1595 1601 1505 
3 1506 1602 1507 
3 1512 1602 1506 
3 1603 1507 1602 
3 1511 1507 1603 
3 1604 1509 1508 
3 1605 1604 1508 
3 1508 1511 1605 
3 1606 1510 1509 
3 1606 1509 1604 
3 1510 1607 1526 
3 1607 1510 1608 
3 1608 1510 1606 
3 1609 1511 1603 
3 1605 1511 1609 
3 1512 1513 1602 
3 1514 1602 1513 
3 1603 1602 1514 
3 1610 1603 1514 
3 1610 1514 1611 
3 1611 1514 1515 
3 1516 1612 1515 
3 1515 1612 1613 
3 1611 1515 1613 
3 1516 1522 1612 
3 1614 1518 1517 
3 1614 1517 1600 
3 1518 1614 1519 
3 1615 1519 1616 
3 1519 1615 1520 
3 1617 1616 1519 
3 1618 1617 1519 
3 1618 1519 1614 
3 1521 1520 1615 
3 1615 1522 1521 
3 1619 1612 1522 
3 1619 1522 1615 
3 1523 1529 1541 
3 1525 1524 1620 
3 1524 1527 1621 
3 1622 1524 1621 
3 1620 1524 1622 
3 1623 1525 1620 
3 1624 1525 1623 
3 1525 1624 1625 
3 1625 1528 1525 
3 1526 1607 1527 
3 1626 1527 1607 
3 1621 1527 1626 
3 1625 1529 1528 
3 1625 1541 1529 
3 1537 1532 1570 
3 1535 1570 1532 
3 1627 1535 1533 
3 1533 1536 1627 
3 1536 1533 1534 
3 1570 1535 1627 
3 1627 1536 1628 
3 1628 1536 1539 
3 1539 1538 1629 
3 1538 1540 1629 
3 1630 1631 1539 
3 1539 1629 1630 
3 1632 1628 1539 
3 1539 1631 1632 
3 1541 1629 1540 
3 1629 1541 1633 
3 1633 1541 1625 
3 1544 1543 1542 
3 1634 1635 1542 
3 1635 1544 1542 
3 1542 1546 1634 
3 1545 1544 1635 
3 1586 1545 1635 
3 1634 1546 1636 
3 1546 1548 1636 
3 1554 1637 1547 
3 1549 1547 1637 
3 1549 1636 1548 
3 1636 1549 1638 
3 1639 1638 1549 
3 1639 1549 1640 
3 1549 1637 1640 
3 1552 1550 1641 
3 1641 1550 1583 
3 1642 1643 1551 
3 1555 1551 1643 
3 1553 1642 1551 
3 1553 1552 1644 
3 1641 1644 1552 
3 1553 1645 1642 
3 1644 1645 1553 
3 1554 1555 1643 
3 1646 1554 1643 
3 1646 1637 1554 
3 1647 1561 1556 
3 1556 1559 1648 
3 1647 1556 1648 
3 1649 1558 1557 
3 1650 1651 1557 
3 1562 1650 1557 
3 1557 1651 1652 
3 1557 1652 1649 
3 1559 1558 1649 
3 1559 1649 1653 
3 1648 1559 1653 
3 1580 1560 1561 
3 1654 1580 1561 
3 1561 1647 1654 
3 1562 1565 1650 
3 1569 1655 1563 
3 1656 1657 1563 
3 1564 1563 1657 
3 1563 1655 1656 
3 1565 1564 1657 
3 1565 1657 1658 
3 1659 1565 1658 
3 1650 1565 1659 
3 1566 1567 1660 
3 1568 1566 1661 
3 1566 1662 1661 
3 1660 1662 1566 
3 1578 1663 1567 
3 1663 1660 1567 
3 1661 1664 1568 
3 1664 1569 1568 
3 1569 1664 1655 
3 1570 1627 1628 
3 1571 1570 1628 
3 1571 1665 1574 
3 1665 1571 1628 
3 1573 1572 1666 
3 1572 1575 1667 
3 1666 1572 1667 
3 1576 1573 1666 
3 1574 1665 1668 
3 1669 1574 1668 
3 1575 1574 1669 
3 1667 1575 1669 
3 1576 1666 1670 
3 1671 1576 1670 
3 1577 1576 1671 
3 1578 1577 1672 
3 1673 1577 1671 
3 1672 1577 1673 
3 1578 1672 1663 
3 1674 1582 1579 
3 1675 1579 1580 
3 1579 1675 1674 
3 1580 1654 1675 
3 1582 1676 1581 
3 1583 1581 1676 
3 1676 1582 1674 
3 1676 1641 1583 
3 1586 1585 1584 
3 1635 1585 1586 
3 1594 1585 1677 
3 1677 1585 1635 
3 1590 1588 1587 
3 1678 1589 1588 
3 1679 1678 1588 
3 1679 1588 1590 
3 1680 1597 1589 
3 1589 1678 1680 
3 1592 1681 1590 
3 1590 1681 1679 
3 1682 1592 1591 
3 1593 1682 1591 
3 1592 1682 1683 
3 1683 1681 1592 
3 1684 1593 1594 
3 1684 1685 1593 
3 1682 1593 1686 
3 1687 1593 1685 
3 1686 1593 1687 
3 1594 1677 1684 
3 1596 1601 1595 
3 1688 1601 1596 
3 1596 1598 1688 
3 1597 1689 1598 
3 1597 1690 1689 
3 1690 1597 1680 
3 1689 1688 1598 
3 1691 1599 1601 
3 1599 1691 1600 
3 1600 1692 1614 
3 1600 1693 1692 
3 1600 1691 1693 
3 1691 1601 1688 
3 1609 1603 1610 
3 1694 1606 1604 
3 1694 1604 1605 
3 1695 1605 1609 
3 1605 1695 1694 
3 1696 1608 1606 
3 1696 1606 1694 
3 1697 1607 1608 
3 1626 1607 1697 
3 1697 1608 1696 
3 1609 1698 1695 
3 1609 1610 1698 
3 1698 1610 1611 
3 1698 1611 1613 
3 1612 1619 1698 
3 1698 1613 1612 
3 1614 1692 1618 
3 1619 1615 1616 
3 1619 1616 1699 
3 1699 1616 1700 
3 1700 1616 1617 
3 1700 1617 1701 
3 1701 1617 1618 
3 1702 1618 1692 
3 1701 1618 1702 
3 1699 1698 1619 
3 1703 1620 1622 
3 1623 1620 1703 
3 1704 1621 1626 
3 1622 1621 1704 
3 1705 1622 1704 
3 1703 1622 1705 
3 1706 1624 1623 
3 1707 1623 1703 
3 1706 1623 1707 
3 1624 1708 1625 
3 1624 1709 1708 
3 1709 1624 1706 
3 1708 1633 1625 
3 1710 1626 1697 
3 1704 1626 1710 
3 1628 1632 1711 
3 1628 1712 1665 
3 1628 1711 1712 
3 1713 1629 1633 
3 1630 1629 1713 
3 1714 1631 1630 
3 1715 1630 1713 
3 1714 1630 1715 
3 1631 1714 1716 
3 1716 1632 1631 
3 1711 1632 1716 
3 1713 1633 1708 
3 1685 1635 1634 
3 1717 1685 1634 
3 1634 1718 1717 
3 1636 1719 1634 
3 1634 1719 1718 
3 1684 1677 1635 
3 1684 1635 1685 
3 1719 1636 1720 
3 1721 1720 1636 
3 1636 1638 1721 
3 1637 1646 1640 
3 1638 1722 1721 
3 1638 1639 1722 
3 1640 1722 1639 
3 1640 1646 1723 
3 1640 1724 1722 
3 1723 1724 1640 
3 1644 1641 1725 
3 1676 1726 1641 
3 1725 1641 1726 
3 1643 1642 1727 
3 1642 1645 1727 
3 1728 1723 1643 
3 1643 1727 1728 
3 1643 1723 1646 
3 1729 1645 1644 
3 1725 1729 1644 
3 1645 1729 1730 
3 1731 1645 1732 
3 1731 1727 1645 
3 1645 1730 1732 
3 1733 1734 1647 
3 1654 1647 1734 
3 1647 1648 1733 
3 1648 1653 1735 
3 1733 1648 1735 
3 1649 1652 1736 
3 1653 1649 1736 
3 1651 1650 1659 
3 1737 1738 1651 
3 1737 1651 1659 
3 1652 1651 1738 
3 1736 1652 1738 
3 1653 1736 1739 
3 1739 1735 1653 
3 1654 1734 1675 
3 1655 1664 1740 
3 1656 1655 1740 
3 1657 1656 1741 
3 1656 1740 1742 
3 1741 1656 1742 
3 1658 1657 1741 
3 1737 1658 1743 
3 1659 1658 1737 
3 1658 1741 1743 
3 1660 1744 1662 
3 1663 1744 1660 
3 1661 1662 1745 
3 1664 1661 1745 
3 1662 1744 1746 
3 1745 1662 1746 
3 1663 1672 1744 
3 1747 1740 1664 
3 1664 1745 1747 
3 1668 1665 1712 
3 1666 1667 1748 
3 1670 1666 1748 
3 1667 1669 1749 
3 1748 1667 1749 
3 1669 1668 1750 
3 1668 1712 1750 
3 1751 1749 1669 
3 1750 1751 1669 
3 1670 1748 1752 
3 1753 1670 1752 
3 1671 1670 1754 
3 1754 1670 1753 
3 1673 1671 1754 
3 1755 1672 1673 
3 1744 1672 1755 
3 1755 1673 1756 
3 1754 1756 1673 
3 1676 1674 1726 
3 1674 1734 1757 
3 1675 1734 1674 
3 1757 1758 1674 
3 1726 1674 1758 
3 1680 1678 1679 
3 1759 1679 1681 
3 1680 1679 1760 
3 1679 1759 1760 
3 1761 1680 1762 
3 1680 1760 1762 
3 1690 1680 1761 
3 1681 1763 1759 
3 1764 1681 1683 
3 1681 1764 1763 
3 1683 1682 1686 
3 1765 1683 1686 
3 1764 1683 1765 
3 1766 1685 1717 
3 1685 1766 1687 
3 1686 1687 1767 
3 1767 1768 1686 
3 1686 1769 1765 
3 1686 1768 1769 
3 1766 1767 1687 
3 1688 1770 1771 
3 1688 1689 1770 
3 1771 1691 1688 
3 1690 1772 1689 
3 1770 1689 1772 
3 1690 1773 1774 
3 1772 1690 1774 
3 1761 1775 1690 
3 1773 1690 1775 
3 1771 1776 1691 
3 1691 1776 1693 
3 1776 1692 1693 
3 1702 1692 1776 
3 1777 1696 1694 
3 1695 1777 1694 
3 1778 1777 1695 
3 1695 1698 1779 
3 1695 1779 1778 
3 1777 1697 1696 
3 1710 1697 1777 
3 1780 1698 1699 
3 1698 1780 1779 
3 1780 1699 1700 
3 1779 1780 1700 
3 1700 1778 1779 
3 1778 1700 1701 
3 1774 1773 1701 
3 1702 1781 1701 
3 1701 1781 1774 
3 1701 1773 1782 
3 1782 1783 1701 
3 1778 1701 1783 
3 1702 1776 1781 
3 1784 1703 1705 
3 1707 1703 1784 
3 1785 1704 1710 
3 1705 1704 1785 
3 1785 1784 1705 
3 1709 1706 1786 
3 1786 1706 1707 
3 1787 1788 1707 
3 1787 1707 1784 
3 1786 1707 1788 
3 1715 1713 1708 
3 1709 1715 1708 
3 1786 1789 1709 
3 1715 1709 1789 
3 1777 1785 1710 
3 1790 1711 1716 
3 1712 1711 1790 
3 1750 1712 1791 
3 1790 1791 1712 
3 1714 1792 1793 
3 1793 1716 1714 
3 1794 1792 1714 
3 1714 1789 1794 
3 1714 1715 1789 
3 1716 1793 1795 
3 1716 1795 1790 
3 1717 1796 1797 
3 1717 1718 1796 
3 1797 1766 1717 
3 1718 1719 1720 
3 1798 1796 1718 
3 1718 1720 1798 
3 1799 1800 1720 
3 1801 1798 1720 
3 1801 1720 1800 
3 1724 1720 1721 
3 1724 1799 1720 
3 1724 1721 1722 
3 1728 1802 1723 
3 1803 1724 1723 
3 1802 1804 1723 
3 1803 1723 1804 
3 1724 1805 1799 
3 1803 1805 1724 
3 1806 1729 1725 
3 1758 1725 1726 
3 1758 1806 1725 
3 1728 1727 1807 
3 1727 1731 1807 
3 1802 1728 1808 
3 1809 1808 1728 
3 1728 1807 1809 
3 1806 1810 1729 
3 1729 1810 1730 
3 1730 1811 1732 
3 1811 1730 1810 
3 1732 1812 1731 
3 1731 1812 1813 
3 1731 1813 1807 
3 1732 1811 1814 
3 1732 1814 1812 
3 1734 1733 1815 
3 1816 1817 1733 
3 1733 1735 1816 
3 1815 1733 1817 
3 1734 1815 1757 
3 1735 1739 1816 
3 1736 1738 1818 
3 1736 1818 1739 
3 1818 1738 1737 
3 1737 1819 1820 
3 1743 1819 1737 
3 1737 1821 1818 
3 1820 1821 1737 
3 1739 1818 1821 
3 1821 1816 1739 
3 1742 1740 1822 
3 1740 1747 1822 
3 1742 1743 1741 
3 1743 1742 1822 
3 1822 1819 1743 
3 1746 1744 1755 
3 1745 1746 1747 
3 1756 1747 1746 
3 1746 1755 1756 
3 1747 1756 1822 
3 1748 1823 1824 
3 1749 1823 1748 
3 1748 1824 1752 
3 1749 1751 1823 
3 1750 1825 1751 
3 1791 1825 1750 
3 1751 1826 1827 
3 1827 1823 1751 
3 1751 1825 1826 
3 1753 1752 1828 
3 1752 1824 1828 
3 1754 1753 1829 
3 1753 1828 1829 
3 1830 1754 1829 
3 1831 1756 1754 
3 1830 1831 1754 
3 1822 1756 1831 
3 1757 1815 1832 
3 1757 1832 1833 
3 1757 1833 1806 
3 1757 1806 1758 
3 1760 1759 1834 
3 1763 1834 1759 
3 1835 1762 1760 
3 1834 1835 1760 
3 1762 1775 1761 
3 1762 1835 1836 
3 1836 1775 1762 
3 1837 1834 1763 
3 1764 1837 1763 
3 1838 1837 1764 
3 1839 1838 1764 
3 1764 1765 1839 
3 1840 1839 1765 
3 1769 1840 1765 
3 1841 1842 1766 
3 1843 1767 1766 
3 1844 1766 1842 
3 1841 1766 1797 
3 1766 1844 1843 
3 1767 1843 1768 
3 1768 1845 1769 
3 1846 1845 1768 
3 1768 1843 1846 
3 1845 1840 1769 
3 1770 1781 1771 
3 1781 1770 1774 
3 1774 1770 1772 
3 1776 1771 1781 
3 1775 1836 1773 
3 1773 1836 1847 
3 1847 1782 1773 
3 1848 1785 1777 
3 1777 1778 1848 
3 1849 1778 1850 
3 1783 1851 1778 
3 1849 1848 1778 
3 1850 1778 1851 
3 1851 1782 1847 
3 1783 1782 1851 
3 1784 1785 1787 
3 1848 1787 1785 
3 1788 1852 1786 
3 1789 1786 1852 
3 1787 1849 1788 
3 1849 1787 1848 
3 1853 1788 1849 
3 1854 1855 1788 
3 1788 1830 1854 
3 1830 1788 1853 
3 1855 1852 1788 
3 1789 1852 1856 
3 1789 1856 1794 
3 1790 1795 1791 
3 1791 1795 1825 
3 1793 1792 1795 
3 1857 1792 1794 
3 1826 1795 1792 
3 1826 1792 1857 
3 1856 1857 1794 
3 1825 1795 1826 
3 1797 1796 1858 
3 1858 1796 1859 
3 1798 1859 1796 
3 1797 1858 1841 
3 1798 1860 1859 
3 1861 1798 1801 
3 1860 1798 1861 
3 1799 1862 1800 
3 1863 1862 1799 
3 1805 1864 1799 
3 1864 1863 1799 
3 1800 1865 1866 
3 1866 1801 1800 
3 1800 1862 1865 
3 1801 1867 1861 
3 1801 1866 1867 
3 1802 1868 1804 
3 1808 1868 1802 
3 1803 1869 1870 
3 1871 1869 1803 
3 1803 1870 1805 
3 1804 1871 1803 
3 1868 1872 1804 
3 1804 1872 1871 
3 1805 1870 1864 
3 1806 1833 1873 
3 1873 1874 1806 
3 1810 1806 1875 
3 1875 1806 1874 
3 1807 1876 1809 
3 1807 1813 1876 
3 1808 1809 1868 
3 1809 1876 1877 
3 1809 1877 1868 
3 1875 1811 1810 
3 1811 1875 1814 
3 1812 1814 1878 
3 1812 1878 1813 
3 1813 1878 1879 
3 1813 1879 1876 
3 1814 1875 1880 
3 1814 1880 1878 
3 1817 1832 1815 
3 1817 1816 1881 
3 1816 1821 1882 
3 1883 1816 1882 
3 1883 1881 1816 
3 1832 1817 1881 
3 1884 1820 1819 
3 1819 1885 1884 
3 1885 1819 1822 
3 1821 1820 1882 
3 1882 1820 1886 
3 1820 1884 1886 
3 1822 1831 1885 
3 1824 1823 1827 
3 1828 1824 1827 
3 1827 1826 1887 
3 1887 1826 1857 
3 1827 1887 1854 
3 1828 1827 1854 
3 1829 1828 1830 
3 1854 1830 1828 
3 1885 1830 1888 
3 1831 1830 1885 
3 1853 1888 1830 
3 1832 1881 1889 
3 1833 1832 1889 
3 1889 1873 1833 
3 1890 1835 1834 
3 1837 1890 1834 
3 1835 1890 1836 
3 1836 1890 1891 
3 1891 1892 1836 
3 1893 1847 1836 
3 1836 1894 1893 
3 1836 1895 1896 
3 1892 1897 1836 
3 1895 1836 1897 
3 1894 1836 1896 
3 1891 1890 1837 
3 1838 1891 1837 
3 1892 1891 1838 
3 1838 1839 1892 
3 1892 1839 1898 
3 1839 1840 1898 
3 1898 1840 1899 
3 1840 1845 1899 
3 1841 1900 1842 
3 1901 1900 1841 
3 1902 1841 1858 
3 1841 1902 1901 
3 1842 1903 1844 
3 1842 1904 1903 
3 1842 1905 1904 
3 1900 1905 1842 
3 1844 1906 1843 
3 1906 1907 1843 
3 1846 1843 1907 
3 1844 1903 1906 
3 1899 1845 1908 
3 1845 1846 1908 
3 1908 1846 1907 
3 1847 1893 1851 
3 1850 1909 1849 
3 1909 1910 1849 
3 1888 1849 1910 
3 1888 1853 1849 
3 1851 1911 1850 
3 1911 1909 1850 
3 1851 1893 1912 
3 1851 1912 1913 
3 1913 1911 1851 
3 1852 1855 1856 
3 1856 1855 1854 
3 1854 1887 1856 
3 1856 1887 1857 
3 1858 1860 1902 
3 1859 1860 1858 
3 1860 1861 1902 
3 1861 1867 1914 
3 1914 1902 1861 
3 1865 1862 1915 
3 1862 1863 1916 
3 1916 1915 1862 
3 1863 1917 1916 
3 1863 1918 1919 
3 1920 1918 1863 
3 1917 1863 1919 
3 1863 1864 1920 
3 1864 1921 1920 
3 1870 1921 1864 
3 1866 1865 1922 
3 1865 1923 1922 
3 1915 1923 1865 
3 1924 1866 1922 
3 1867 1866 1924 
3 1867 1925 1926 
3 1924 1925 1867 
3 1914 1867 1926 
3 1868 1877 1872 
3 1869 1927 1870 
3 1869 1928 1927 
3 1929 1928 1869 
3 1871 1929 1869 
3 1870 1927 1921 
3 1929 1871 1872 
3 1872 1877 1930 
3 1930 1929 1872 
3 1874 1873 1889 
3 1874 1889 1931 
3 1874 1931 1932 
3 1874 1932 1875 
3 1875 1932 1880 
3 1876 1933 1877 
3 1876 1879 1933 
3 1877 1933 1930 
3 1934 1879 1878 
3 1878 1880 1934 
3 1879 1934 1933 
3 1880 1935 1934 
3 1880 1932 1935 
3 1889 1881 1883 
3 1886 1936 1882 
3 1936 1883 1882 
3 1883 1936 1937 
3 1931 1889 1883 
3 1883 1937 1931 
3 1886 1884 1885 
3 1886 1885 1938 
3 1885 1888 1938 
3 1939 1886 1940 
3 1941 1940 1886 
3 1886 1939 1936 
3 1886 1938 1941 
3 1938 1888 1941 
3 1910 1941 1888 
3 1897 1892 1942 
3 1942 1892 1898 
3 1893 1943 1912 
3 1944 1943 1893 
3 1944 1893 1894 
3 1945 1894 1946 
3 1945 1944 1894 
3 1896 1946 1894 
3 1947 1896 1895 
3 1948 1895 1897 
3 1949 1895 1948 
3 1947 1895 1949 
3 1896 1950 1951 
3 1952 1896 1947 
3 1950 1896 1953 
3 1896 1952 1953 
3 1951 1946 1896 
3 1942 1948 1897 
3 1898 1899 1942 
3 1899 1908 1942 
3 1900 1954 1905 
3 1901 1954 1900 
3 1954 1901 1955 
3 1956 1955 1901 
3 1914 1956 1901 
3 1901 1902 1914 
3 1903 1949 1906 
3 1957 1949 1903 
3 1903 1904 1957 
3 1904 1958 1957 
3 1959 1958 1904 
3 1905 1959 1904 
3 1954 1959 1905 
3 1906 1948 1942 
3 1949 1948 1906 
3 1907 1906 1942 
3 1907 1942 1908 
3 1941 1909 1911 
3 1941 1910 1909 
3 1960 1911 1913 
3 1941 1911 1960 
3 1912 1943 1961 
3 1913 1912 1961 
3 1961 1962 1913 
3 1960 1913 1962 
3 1956 1914 1926 
3 1923 1915 1963 
3 1915 1916 1917 
3 1917 1963 1915 
3 1917 1964 1965 
3 1919 1964 1917 
3 1963 1917 1965 
3 1918 1966 1919 
3 1918 1967 1966 
3 1968 1967 1918 
3 1920 1968 1918 
3 1919 1966 1964 
3 1921 1968 1920 
3 1921 1969 1968 
3 1927 1969 1921 
3 1922 1970 1924 
3 1923 1970 1922 
3 1970 1923 1971 
3 1971 1923 1963 
3 1924 1972 1925 
3 1970 1972 1924 
3 1925 1973 1926 
3 1925 1974 1973 
3 1972 1974 1925 
3 1926 1973 1975 
3 1926 1975 1956 
3 1927 1976 1969 
3 1928 1976 1927 
3 1928 1977 1976 
3 1978 1977 1928 
3 1929 1978 1928 
3 1930 1978 1929 
3 1979 1930 1933 
3 1930 1979 1978 
3 1932 1931 1937 
3 1937 1935 1932 
3 1933 1934 1979 
3 1934 1935 1977 
3 1977 1979 1934 
3 1980 1935 1937 
3 1977 1935 1980 
3 1939 1981 1936 
3 1937 1936 1981 
3 1937 1982 1983 
