NORM_ASCII
1434 2864
   0.0067252   -0.2734384    0.0828818   -0.3728319   -0.7937820    0.4805273
   0.0047935   -0.2715966    0.0808488   -0.9180941    0.0083240    0.3962750
   0.0050243   -0.2702049    0.0810954   -0.9213929    0.1623697    0.3530881
   0.0050278   -0.2696221    0.0807279   -0.8380599    0.3541391    0.4150195
   0.0052208   -0.2682485    0.0797204   -0.6690482    0.5101865    0.5404482
   0.0052275   -0.2681906    0.0796792   -0.7478338    0.4676445    0.4712252
   0.0054876   -0.2676616    0.0794995   -0.6769666    0.5858371    0.4455459
   0.0065694   -0.2675134    0.0806840   -0.6362094    0.5432593    0.5478202
   0.0070414   -0.2735881    0.0827353   -0.2002719   -0.9117347    0.3586516
   0.0071442   -0.2736172    0.0826755   -0.0157707   -0.9800533    0.1981079
   0.0080791   -0.2736725    0.0816518   -0.0137969   -0.9893155    0.1451358
   0.0074697   -0.2736240    0.0817339    0.0004118   -0.9879637    0.1546851
   0.0085701   -0.2736526    0.0819655   -0.1082648   -0.9485725    0.2974709
   0.0090717   -0.2736690    0.0819457    0.0561244   -0.8953381    0.4418367
   0.0090033   -0.2683428    0.0835543   -0.3964021    0.3314999    0.8561385
   0.0098221   -0.2680473    0.0837979   -0.2212745    0.3072681    0.9255398
   0.0108698   -0.2679866    0.0837890    0.1573717    0.1606084    0.9743916
   0.0122693   -0.2714488    0.0828288    0.5101864   -0.3451997    0.7877480
   0.0126007   -0.2718513    0.0823251    0.4682739   -0.5436975    0.6965002
   0.0133508   -0.2718693    0.0817681    0.5426529   -0.4590417    0.7034263
   0.0130814   -0.2721001    0.0817669    0.3675506   -0.6663804    0.6487247
   0.0121846   -0.2707443    0.0830816    0.5117607   -0.1165176    0.8511901
   0.0112130   -0.2684681    0.0837057    0.3908163    0.0425950    0.9194826
   0.0113906   -0.2690778    0.0836032    0.4254515   -0.0550259    0.9033068
   0.0092885   -0.2739519    0.0812592    0.0343374   -0.9690603    0.2444239
   0.0097516   -0.2738989    0.0812245    0.2949838   -0.9168746    0.2689341
   0.0116084   -0.2732048    0.0807796    0.2696631   -0.9357116    0.2274328
   0.0105251   -0.2736346    0.0808206    0.3932186   -0.9088371    0.1392634
   0.0128568   -0.2727665    0.0809558    0.1370801   -0.8329229    0.5361422
   0.0133377   -0.2723352    0.0813702    0.3833389   -0.6662053    0.6397045
   0.0131489   -0.2724942    0.0812637    0.2161710   -0.7393328    0.6376967
   0.0083484   -0.2678323    0.0830318   -0.5103905    0.4280629    0.7458308
   0.0079786   -0.2674877    0.0823973   -0.6369056    0.5278133    0.5619292
   0.0073991   -0.2673680    0.0813627   -0.6385135    0.4926881    0.5912351
   0.0076208   -0.2669615    0.0812893   -0.6233237    0.6545514    0.4278200
   0.0064019   -0.2733456    0.0827190   -0.4330870   -0.7980328    0.4190218
   0.0061472   -0.2732949    0.0825303   -0.4546706   -0.7629251    0.4595866
   0.0057605   -0.2732102    0.0820710   -0.7418236   -0.6051643    0.2889184
   0.0060148   -0.2733419    0.0823107   -0.5619770   -0.7522516    0.3439467
   0.0055993   -0.2729728    0.0820443   -0.8282240   -0.4768188    0.2944297
   0.0051921   -0.2722767    0.0815136   -0.8603780   -0.2452244    0.4467826
   0.0053116   -0.2725285    0.0816353   -0.8945082   -0.3142104    0.3180045
   0.0054651   -0.2727185    0.0819874   -0.8978348   -0.3408705    0.2787470
   0.0067257   -0.2736149    0.0822925   -0.1542082   -0.9734640    0.1690791
   0.0048161   -0.2723097    0.0808242   -0.8770846   -0.1181622    0.4655753
   0.0042917   -0.2721574    0.0797279   -0.9563949   -0.0257411    0.2909403
   0.0046534   -0.2721241    0.0804820   -0.8968049    0.0092029    0.4423305
   0.0042785   -0.2719356    0.0795985   -0.9513418    0.0584270    0.3025476
   0.0045973   -0.2702638    0.0800580   -0.9250412    0.1972279    0.3246535
   0.0049594   -0.2690557    0.0800742   -0.8426259    0.3680842    0.3930592
   0.0050123   -0.2686944    0.0798086   -0.7198159    0.4965612    0.4850691
   0.0050684   -0.2683347    0.0795399    0.9621238    0.1948101    0.1907009
   0.0050684   -0.2683347    0.0795399   -0.0907384    0.7020984    0.7062750
   0.0051188   -0.2679757    0.0792769   -0.7795084    0.5175941    0.3527931
   0.0066230   -0.2667858    0.0798381   -0.5702633    0.7260737    0.3842093
   0.0054386   -0.2674537    0.0790562   -0.7246271    0.6289600    0.2816468
   0.0060919   -0.2669312    0.0792827   -0.6182405    0.7277970    0.2968001
   0.0069667   -0.2673897    0.0810048   -0.6308322    0.4174024    0.6540840
   0.0068186   -0.2671967    0.0806463   -0.5876859    0.6298640    0.5078353
   0.0078856   -0.2736959    0.0814630    0.0016892   -0.9742275    0.2255613
   0.0081625   -0.2736594    0.0815795   -0.1472563   -0.9458846    0.2891677
   0.0071114   -0.2737144    0.0813624   -0.0190418   -0.9825494    0.1850243
   0.0071680   -0.2737247    0.0813256   -0.0852484   -0.9331983    0.3491040
   0.0076383   -0.2737330    0.0813242   -0.0515384   -0.8568808    0.5129318
   0.0068989   -0.2736349    0.0818233    0.2108004   -0.9719651    0.1041494
   0.0085112   -0.2737368    0.0817138   -0.1540976   -0.9269682    0.3420291
   0.0094302   -0.2673361    0.0832990   -0.4157120    0.4342137    0.7991508
   0.0107924   -0.2673392    0.0836664    0.0801153    0.3052803    0.9488864
   0.0102811   -0.2670234    0.0835070   -0.1086172    0.4193726    0.9012929
   0.0099415   -0.2669395    0.0833625   -0.2949180    0.4850811    0.8232373
   0.0111144   -0.2674643    0.0836398    0.3162180    0.1443101    0.9376464
   0.0125793   -0.2708603    0.0827712    0.6241998   -0.0916499    0.7758704
   0.0126492   -0.2712874    0.0826346    0.5890466   -0.2831586    0.7568655
   0.0130014   -0.2713444    0.0823126    0.6594224   -0.2699928    0.7016167
   0.0132796   -0.2715529    0.0819731    0.6395513   -0.2662622    0.7211648
   0.0136752   -0.2714826    0.0816284    0.6937101   -0.0983548    0.7135073
   0.0137047   -0.2718467    0.0814846    0.6268296   -0.3651818    0.6882782
   0.0116715   -0.2688849    0.0834844    0.4983922    0.0171652    0.8667818
   0.0122944   -0.2697879    0.0830135    0.6256790   -0.0122593    0.7799843
   0.0085693   -0.2738577    0.0813955   -0.0872173   -0.9265205    0.3659958
   0.0090002   -0.2739525    0.0811283    0.0983886   -0.9657038    0.2402830
   0.0094105   -0.2740284    0.0802321    0.2657537   -0.9616992   -0.0671535
   0.0099410   -0.2739018    0.0807782    0.2841525   -0.9571924    0.0551370
   0.0126431   -0.2729905    0.0805598    0.1838874   -0.9171185    0.3536653
   0.0131346   -0.2731453    0.0795837    0.0839596   -0.9898398    0.1147517
   0.0121486   -0.2732215    0.0800303    0.0966153   -0.9930929    0.0665725
   0.0114063   -0.2732891    0.0799359    0.2471226   -0.9643286   -0.0948728
   0.0130240   -0.2726460    0.0811032    0.1044234   -0.7957184    0.5965970
   0.0129016   -0.2727777    0.0809292    0.1561453   -0.8699097    0.4678417
   0.0143731   -0.2723779    0.0806118    0.4390762   -0.5511472    0.7095413
   0.0140128   -0.2722578    0.0809559    0.5586461   -0.4245571    0.7125067
   0.0134637   -0.2726955    0.0808016    0.2383899   -0.8541904    0.4620921
   0.0147260   -0.2726723    0.0801785    0.2845464   -0.7553844    0.5902777
   0.0083652   -0.2674920    0.0828064   -0.5326285    0.4966887    0.6852789
   0.0079869   -0.2668833    0.0816621   -0.6098837    0.6419616    0.4646796
   0.0086360   -0.2669573    0.0826148   -0.5632350    0.5716066    0.5966844
   0.0071888   -0.2672098    0.0810735   -0.5888206    0.5750032    0.5680332
   0.0071843   -0.2664421    0.0798958   -0.5053267    0.7715446    0.3864761
   0.0081454   -0.2660708    0.0803333   -0.4599563    0.8539748    0.2432433
   0.0079749   -0.2661293    0.0801496   -0.4316077    0.8736514    0.2246064
   0.0082838   -0.2662091    0.0810138   -0.6325110    0.6886635    0.3545031
   0.0083785   -0.2660351    0.0805639   -0.5305241    0.8256884    0.1917887
   0.0062747   -0.2735231    0.0822269   -0.3308352   -0.8890273    0.3165101
   0.0057482   -0.2733051    0.0815413   -0.6467459   -0.7611477    0.0487229
   0.0059767   -0.2734678    0.0817189   -0.5694313   -0.8122762    0.1263147
   0.0062470   -0.2735909    0.0819405   -0.4285109   -0.8891349    0.1606782
   0.0055509   -0.2731041    0.0814642   -0.7808200   -0.5413247    0.3119098
   0.0053511   -0.2729080    0.0813630   -0.7621741   -0.4320497    0.4821034
   0.0052884   -0.2729756    0.0812335   -0.7374481   -0.5287316    0.4202537
   0.0049246   -0.2725773    0.0809095   -0.8289935   -0.3194468    0.4590462
   0.0051431   -0.2727298    0.0811893   -0.7956369   -0.3896112    0.4638589
   0.0065163   -0.2736139    0.0821007    0.0805301   -0.9869499    0.1394445
   0.0066690   -0.2736273    0.0819931   -0.0122942   -0.9977033    0.0666108
   0.0048349   -0.2726797    0.0806925   -0.7822348   -0.3942397    0.4823731
   0.0047157   -0.2724177    0.0806189   -0.8572882   -0.1462431    0.4936293
   0.0044395   -0.2723507    0.0800867   -0.9059479   -0.1229446    0.4051458
   0.0042574   -0.2722307    0.0794409   -0.9781466   -0.1756242    0.1112892
   0.0043208   -0.2725221    0.0795847   -0.9395179   -0.3382505    0.0537845
   0.0043632   -0.2724470    0.0798548   -0.9291073   -0.2499039    0.2725944
   0.0045581   -0.2722890    0.0803081   -0.8991466   -0.0500613    0.4347750
   0.0046116   -0.2725294    0.0804180   -0.8771155   -0.1801607    0.4452084
   0.0042494   -0.2708126    0.0792665   -0.9605106    0.1187593    0.2516261
   0.0041686   -0.2716210    0.0791354   -0.9837944    0.0212161    0.1780404
   0.0041905   -0.2719378    0.0793174   -0.9845081   -0.0838980    0.1539640
   0.0048672   -0.2689102    0.0797041   -0.8750057    0.3383811    0.3462127
   0.0044043   -0.2696620    0.0789260   -0.9401475    0.1960772    0.2787049
   0.0043464   -0.2702729    0.0792047   -0.9489687    0.1654864    0.2684634
   0.0045265   -0.2691807    0.0790825   -0.9245012    0.2556063    0.2827773
   0.0050684   -0.2683347    0.0795399    0.7619945    0.5013261    0.4099225
   0.0049216   -0.2684692    0.0793864   -0.8457894    0.4113793    0.3397167
   0.0049809   -0.2681062    0.0791136   -0.8503467    0.4386870    0.2906273
   0.0049287   -0.2684402    0.0793620   -0.7453951    0.5302611    0.4039917
   0.0050372   -0.2677966    0.0785273   -0.8307633    0.5235972    0.1888872
   0.0068810   -0.2663711    0.0790327   -0.4868012    0.8533073    0.1867921
   0.0061780   -0.2668346    0.0791563   -0.5458783    0.8164390    0.1882664
   0.0053241   -0.2673522    0.0783806   -0.7032196    0.6901564    0.1707815
   0.0080940   -0.2737507    0.0813392   -0.1451301   -0.8157882    0.5598454
   0.0083574   -0.2739283    0.0812512   -0.0156475   -0.8054720    0.5924272
   0.0069169   -0.2737361    0.0811740   -0.1645151   -0.9766383    0.1382475
   0.0067057   -0.2736583    0.0816351    0.5372276   -0.8370414    0.1036737
   0.0071083   -0.2738096    0.0810750   -0.3015884   -0.8832484    0.3590498
   0.0076167   -0.2739227    0.0811102   -0.1685030   -0.7634464    0.6235033
   0.0082049   -0.2740684    0.0811045   -0.0604616   -0.7161761    0.6952958
   0.0067057   -0.2736583    0.0816351    0.8325573   -0.5518609    0.0479366
   0.0091444   -0.2665634    0.0826814   -0.4240729    0.5575950    0.7136175
   0.0116708   -0.2667456    0.0832506    0.3891935    0.2605694    0.8835338
   0.0111530   -0.2667522    0.0833744    0.1227888    0.3496490    0.9287995
   0.0110524   -0.2664792    0.0832802   -0.0005992    0.4430244    0.8965093
   0.0096830   -0.2664809    0.0829209   -0.3712979    0.5795565    0.7254324
   0.0111444   -0.2660795    0.0830806    0.0525780    0.5568846    0.8289241
   0.0106545   -0.2657598    0.0827814   -0.2453907    0.6104151    0.7531114
   0.0115877   -0.2675029    0.0834375    0.5099304    0.0976438    0.8546559
   0.0114365   -0.2679584    0.0835666    0.4226436    0.0495492    0.9049405
   0.0127062   -0.2700600    0.0826445    0.7594083    0.0127377    0.6504897
   0.0129911   -0.2712456    0.0823495    0.7119339   -0.0721240    0.6985329
   0.0132730   -0.2711129    0.0820516    0.7402444   -0.0117184    0.6722357
   0.0139861   -0.2713935    0.0813368    0.6926605   -0.0998095    0.7143245
   0.0135531   -0.2699526    0.0816167    0.7192957    0.0741687    0.6907334
   0.0131948   -0.2697908    0.0819826    0.7763377   -0.0415420    0.6289467
   0.0126288   -0.2682774    0.0827921    0.6652348   -0.0090863    0.7465790
   0.0125333   -0.2679760    0.0828463    0.5826775    0.0891635    0.8077975
   0.0117862   -0.2680955    0.0833416    0.5667655    0.0612223    0.8216013
   0.0119006   -0.2680229    0.0832549    0.5579552    0.0591334    0.8277616
   0.0088409   -0.2740282    0.0809462    0.1933995   -0.8940150    0.4041458
   0.0090626   -0.2741216    0.0804873    0.3411256   -0.9113753    0.2302789
   0.0089081   -0.2742044    0.0803069    0.2979697   -0.9488705   -0.1042057
   0.0089454   -0.2740166    0.0798107    0.2291930   -0.8869950   -0.4008871
   0.0103209   -0.2734698    0.0794737    0.2163009   -0.8899253   -0.4015555
   0.0135508   -0.2729607    0.0802023    0.1675505   -0.9221072    0.3487765
   0.0119870   -0.2732436    0.0798174    0.0684636   -0.9969550   -0.0373295
   0.0120105   -0.2731581    0.0786962    0.0170396   -0.9909340   -0.1332644
   0.0130234   -0.2730860    0.0782324   -0.0698156   -0.9960711   -0.0544809
   0.0148257   -0.2732913    0.0787427    0.0304340   -0.9728889    0.2292617
   0.0143381   -0.2730360    0.0796519    0.1154530   -0.9248531    0.3623773
   0.0102627   -0.2732407    0.0789092    0.0486778   -0.9640899   -0.2610770
   0.0144008   -0.2721011    0.0807672    0.5630647   -0.2993320    0.7702977
   0.0147404   -0.2721420    0.0805345    0.5020089   -0.2776545    0.8190819
   0.0147927   -0.2724550    0.0803421    0.4061801   -0.5036466    0.7624683
   0.0149006   -0.2730129    0.0795606    0.1833015   -0.8857290    0.4264794
   0.0151375   -0.2727373    0.0799076    0.3470723   -0.7338217    0.5839919
   0.0152083   -0.2725268    0.0800708    0.4498692   -0.5190674    0.7267645
   0.0091996   -0.2662591    0.0824493   -0.5041106    0.6412595    0.5784970
   0.0086071   -0.2658939    0.0802217   -0.3880473    0.9170417    0.0919447
   0.0089114   -0.2657305    0.0799593   -0.4518537    0.8853191    0.1097197
   0.0093344   -0.2659011    0.0821224   -0.5122099    0.6992424    0.4986995
   0.0093078   -0.2656152    0.0816134   -0.5550896    0.8050016    0.2093992
   0.0063070   -0.2736128    0.0819094   -0.2246761   -0.9725467    0.0606103
   0.0060220   -0.2734964    0.0817025   -0.4095200   -0.9083252   -0.0850809
   0.0055738   -0.2731301    0.0814635   -0.6868625   -0.6775258    0.2630186
   0.0057631   -0.2733128    0.0814336   -0.4940678   -0.8542120    0.1619224
   0.0061047   -0.2734474    0.0812590   -0.3112402   -0.9495344   -0.0389090
   0.0054766   -0.2731984    0.0812299   -0.6371876   -0.6916626    0.3399924
   0.0052381   -0.2730560    0.0809722   -0.7136279   -0.6467820    0.2690877
   0.0054801   -0.2732475    0.0809086   -0.5086348   -0.8594059    0.0520773
   0.0050628   -0.2728277    0.0809618   -0.7592886   -0.5458250    0.3543386
   0.0050030   -0.2729128    0.0807112   -0.6945847   -0.6034792    0.3916184
   0.0067057   -0.2736583    0.0816351    0.8143563   -0.5803553    0.0034024
   0.0047439   -0.2727833    0.0804766   -0.7552108   -0.4473582    0.4790901
   0.0049514   -0.2729944    0.0804518   -0.5716522   -0.7504210    0.3317861
   0.0045098   -0.2725342    0.0801482   -0.9224037   -0.1632148    0.3500463
   0.0044773   -0.2727115    0.0799339   -0.8546638   -0.4424696    0.2716071
   0.0045242   -0.2726457    0.0801095   -0.8909465   -0.3553336    0.2827584
   0.0043618   -0.2725512    0.0792219   -0.8854771   -0.4498546   -0.1164521
   0.0042464   -0.2722880    0.0791444   -0.9338971   -0.3431838   -0.1003051
   0.0045229   -0.2727888    0.0792486   -0.7452084   -0.6361569   -0.1999221
   0.0044509   -0.2727780    0.0796461   -0.8496989   -0.5217165    0.0763125
   0.0045337   -0.2726274    0.0801880   -0.9176320   -0.2411220    0.3159299
   0.0046799   -0.2728725    0.0802312   -0.7542112   -0.5715797    0.3232060
   0.0040759   -0.2710667    0.0785086   -0.9923514   -0.0310298    0.1194813
   0.0041831   -0.2719952    0.0790087   -0.9872956   -0.1566059   -0.0268692
   0.0045864   -0.2688173    0.0788092   -0.8990005    0.3748355    0.2264874
   0.0040825   -0.2700241    0.0781992   -0.9735161    0.1695234    0.1533894
   0.0042830   -0.2694748    0.0784029   -0.9394747    0.2751045    0.2042175
   0.0040346   -0.2707618    0.0783483   -0.9891916    0.0243242    0.1445971
   0.0046237   -0.2682406    0.0777203   -0.9067645    0.4125010    0.0872984
   0.0047130   -0.2680126    0.0775099   -0.8434786    0.5369719    0.0143225
   0.0055685   -0.2669164    0.0775723   -0.6625975    0.7467595    0.0575752
   0.0055124   -0.2670763    0.0780644   -0.6635486    0.7232851    0.1912118
   0.0065460   -0.2663256    0.0775091   -0.4449670    0.8919476    0.0802106
   0.0052866   -0.2673259    0.0780423   -0.7711615    0.6262568    0.1145090
   0.0083175   -0.2741108    0.0810460    0.1420691   -0.7839701    0.6043238
   0.0086193   -0.2741601    0.0808480    0.2446934   -0.8185996    0.5196344
   0.0067310   -0.2736956    0.0812897   -0.3193460   -0.9475740   -0.0110260
   0.0067985   -0.2737084    0.0808970   -0.4604425   -0.8676114    0.1877316
   0.0064655   -0.2736102    0.0814377   -0.1381282   -0.9855967   -0.0975687
   0.0073461   -0.2740365    0.0808084   -0.3969520   -0.8100216    0.4316180
   0.0076639   -0.2741512    0.0808676   -0.2882022   -0.8025466    0.5223586
   0.0080628   -0.2742007    0.0809459   -0.1005734   -0.8101672    0.5775067
   0.0081994   -0.2742494    0.0808722    0.0889054   -0.8968331    0.4333430
   0.0101396   -0.2656108    0.0823787   -0.3906496    0.7093279    0.5867255
   0.0095690   -0.2659406    0.0823193   -0.3892158    0.6840023    0.6169700
   0.0115149   -0.2665043    0.0832210    0.4211724    0.3728010    0.8268212
   0.0119670   -0.2665642    0.0829893    0.8111391    0.1597453    0.5626142
   0.0107673   -0.2653685    0.0824501   -0.1044996    0.7346563    0.6703432
   0.0116528   -0.2660854    0.0829257    0.3286148    0.5134154    0.7927275
   0.0115613   -0.2654966    0.0825000    0.2294492    0.6709205    0.7051374
   0.0131324   -0.2694683    0.0820763    0.7639167   -0.0664041    0.6418893
   0.0130700   -0.2705817    0.0822225    0.7738582    0.0721258    0.6292387
   0.0130230   -0.2702515    0.0822273    0.7863017    0.0773032    0.6129876
   0.0146377   -0.2703781    0.0805561    0.7204572    0.1090278    0.6848755
   0.0150980   -0.2708464    0.0801404    0.6955579    0.1240176    0.7076856
   0.0143496   -0.2716434    0.0809350    0.6601035   -0.0861558    0.7462175
   0.0148641   -0.2692184    0.0800712    0.7491787    0.1039948    0.6541532
   0.0137385   -0.2694940    0.0813833    0.7721916   -0.0119127    0.6352780
   0.0134634   -0.2696466    0.0816780    0.7579677   -0.0923122    0.6457271
   0.0136856   -0.2695187    0.0814393    0.7650589   -0.1380018    0.6289995
   0.0129109   -0.2681047    0.0825399    0.6625786    0.0837720    0.7442928
   0.0129254   -0.2681034    0.0825272    0.7072080    0.0040174    0.7069941
   0.0130901   -0.2674721    0.0823563    0.6300920    0.0389673    0.7755422
   0.0126214   -0.2672126    0.0826669    0.5577249    0.1452712    0.8172143
   0.0085974   -0.2742935    0.0805986    0.2773008   -0.9219861    0.2702699
   0.0084756   -0.2743308    0.0804693    0.1971418   -0.9798269    0.0327762
   0.0086988   -0.2742035    0.0801155    0.2304047   -0.9314450   -0.2816449
   0.0083804   -0.2741419    0.0798518    0.1186952   -0.8826064   -0.4548817
   0.0091293   -0.2734882    0.0789906    0.1626178   -0.8439275   -0.5112159
   0.0096076   -0.2730956    0.0783765    0.0335032   -0.9119212   -0.4089953
   0.0088488   -0.2731333    0.0782815    0.0798085   -0.8622839   -0.5000971
   0.0121147   -0.2730504    0.0781997   -0.0276978   -0.9789211   -0.2023521
   0.0126181   -0.2730556    0.0780651   -0.0593571   -0.9844623   -0.1652596
   0.0131575   -0.2730622    0.0777660   -0.1365137   -0.9865708   -0.0896774
   0.0152378   -0.2734309    0.0778183   -0.0721014   -0.9965676    0.0406740
   0.0152835   -0.2730341    0.0792835    0.3037202   -0.8766757    0.3730869
   0.0153848   -0.2732628    0.0786506    0.3096120   -0.8900432    0.3346096
   0.0152324   -0.2733491    0.0784701    0.1373340   -0.9621426    0.2354166
   0.0106305   -0.2728159    0.0775908   -0.0955813   -0.8888506   -0.4481170
   0.0110905   -0.2727826    0.0774100   -0.1328963   -0.8963880   -0.4228796
   0.0119640   -0.2729159    0.0775300   -0.0965521   -0.9521748   -0.2898978
   0.0147245   -0.2717788    0.0805970    0.5869828   -0.0919251    0.8043637
   0.0151871   -0.2722164    0.0802421    0.5344131   -0.2656908    0.8023784
   0.0151401   -0.2718752    0.0803147    0.5749867   -0.0056104    0.8181435
   0.0153939   -0.2729124    0.0794729    0.3648430   -0.8261675    0.4293447
   0.0155856   -0.2725393    0.0797931    0.6119060   -0.4861170    0.6239081
   0.0155146   -0.2727496    0.0796287    0.5448040   -0.6750712    0.4974611
   0.0155900   -0.2723331    0.0798933    0.6321053   -0.2803446    0.7223918
   0.0095911   -0.2652389    0.0808135   -0.5767932    0.8071033    0.1260708
   0.0079245   -0.2659588    0.0786816   -0.4826918    0.8415963    0.2423309
   0.0094361   -0.2653949    0.0799793   -0.6316116    0.7669889    0.1131141
   0.0089211   -0.2655102    0.0790439   -0.5286605    0.8041695    0.2717158
   0.0098647   -0.2652646    0.0816707   -0.4486814    0.7928294    0.4124397
   0.0061576   -0.2734588    0.0812260   -0.2892753   -0.9462808   -0.1444732
   0.0057513   -0.2733699    0.0811298   -0.3602608   -0.9303927    0.0676874
   0.0057972   -0.2733666    0.0809387   -0.2080376   -0.9741686   -0.0878397
   0.0052434   -0.2731058    0.0806494   -0.5228358   -0.8355447    0.1688422
   0.0058063   -0.2733142    0.0803530   -0.2880091   -0.9558926    0.0576200
   0.0047920   -0.2729660    0.0802047   -0.5670714   -0.7771697    0.2728319
   0.0052354   -0.2731616    0.0803411   -0.3388068   -0.9348535    0.1061074
   0.0048838   -0.2731372    0.0798927   -0.4242134   -0.8984893    0.1129601
   0.0046445   -0.2729454    0.0799537   -0.7109999   -0.6634177    0.2331439
   0.0046473   -0.2729954    0.0796335   -0.6605547   -0.7505039   -0.0202793
   0.0044654   -0.2725312    0.0788719   -0.7699048   -0.5646621   -0.2973269
   0.0042045   -0.2719990    0.0788825   -0.9689930   -0.2311706   -0.0872509
   0.0042366   -0.2720170    0.0786320   -0.8897549   -0.4075108   -0.2055995
   0.0044544   -0.2722586    0.0783712   -0.7785938   -0.5520533   -0.2983771
   0.0046358   -0.2727576    0.0789218   -0.5754789   -0.7396662   -0.3488810
   0.0047844   -0.2729685    0.0791633   -0.4788275   -0.8365011   -0.2664396
   0.0040459   -0.2711368    0.0782250   -0.9872301   -0.1475093   -0.0601470
   0.0041478   -0.2717371    0.0785242   -0.9705437   -0.2351345   -0.0525034
   0.0044004   -0.2687371    0.0775008   -0.9405430    0.3388384   -0.0238198
   0.0042139   -0.2693352    0.0776677   -0.9658110    0.2592469   -0.0004424
   0.0040513   -0.2701455    0.0775994   -0.9828576    0.1011449   -0.1541447
   0.0040351   -0.2708139    0.0780306   -0.9938700   -0.0782223   -0.0781262
   0.0046114   -0.2683247    0.0772699   -0.8834264    0.4141658   -0.2191449
   0.0049289   -0.2677786    0.0771991   -0.8119821    0.5077259   -0.2879226
   0.0053381   -0.2672025    0.0772264   -0.7361009    0.6229744   -0.2646854
   0.0060905   -0.2665863    0.0769688   -0.6048243    0.7616207   -0.2326401
   0.0072285   -0.2659216    0.0770879   -0.4545073    0.8869476    0.0821406
   0.0065067   -0.2663394    0.0768480   -0.5311161    0.8371676   -0.1306375
   0.0066115   -0.2735882    0.0809629   -0.4622088   -0.8851398   -0.0537635
   0.0067786   -0.2737733    0.0806023   -0.5642429   -0.8044275    0.1858127
   0.0062726   -0.2734548    0.0804370   -0.4818605   -0.8615640    0.1597430
   0.0072725   -0.2741493    0.0804639   -0.4598590   -0.8756117    0.1477627
   0.0073163   -0.2740727    0.0807321   -0.4012994   -0.8365970    0.3729131
   0.0079648   -0.2743088    0.0807381   -0.1630458   -0.9023332    0.3990124
   0.0075855   -0.2742473    0.0806379   -0.3227935   -0.9081916    0.2664440
   0.0080449   -0.2743323    0.0806916    0.0118591   -0.9591908    0.2825108
   0.0084234   -0.2743467    0.0804142    0.1461748   -0.9880882   -0.0481105
   0.0108099   -0.2650537    0.0820182   -0.2166775    0.8264390    0.5196629
   0.0108006   -0.2647791    0.0815202   -0.3099331    0.8478071    0.4303076
   0.0117359   -0.2663667    0.0830407    0.3878908    0.3675437    0.8452529
   0.0119670   -0.2665642    0.0829893    0.9075119    0.1366564    0.3971739
   0.0123853   -0.2666584    0.0827102    0.5559507    0.2129178    0.8034829
   0.0119670   -0.2665642    0.0829893    0.9269815    0.1188823    0.3557701
   0.0123488   -0.2665836    0.0827120    0.6948330    0.1949439    0.6922456
   0.0113880   -0.2649908    0.0819595    0.0718582    0.8196325    0.5683652
   0.0118265   -0.2663077    0.0829810    0.5787509    0.3456747    0.7386178
   0.0129679   -0.2656287    0.0818731    0.3488309    0.6178821    0.7046551
   0.0121066   -0.2651827    0.0819108    0.3213714    0.7559851    0.5702692
   0.0131988   -0.2679569    0.0822285    0.7636982   -0.0808134    0.6404953
   0.0153245   -0.2696640    0.0796660    0.7312322    0.1815747    0.6575181
   0.0154213   -0.2716502    0.0800594    0.6429748    0.1086994    0.7581345
   0.0162877   -0.2712821    0.0791718    0.7154732    0.1643412    0.6790362
   0.0145886   -0.2675809    0.0802392    0.8168429    0.0445871    0.5751345
   0.0151452   -0.2682596    0.0795424    0.8061189    0.1162302    0.5802266
   0.0138801   -0.2669870    0.0814538    0.8229730   -0.0237515    0.5675837
   0.0133519   -0.2671102    0.0821484    0.7181937   -0.0198925    0.6955588
   0.0143534   -0.2673349    0.0806126    0.8641905   -0.0227452    0.5026505
   0.0133497   -0.2678560    0.0820505    0.7676111   -0.0792060    0.6360029
   0.0131958   -0.2679404    0.0822339    0.7294768    0.0029662    0.6839992
   0.0132041   -0.2668455    0.0822276    0.5683997    0.1347553    0.8116420
   0.0129986   -0.2662778    0.0822145    0.5112274    0.2221861    0.8302288
   0.0080927   -0.2743130    0.0801263   -0.0225768   -0.9543178   -0.2979393
   0.0079520   -0.2742640    0.0800201   -0.0833563   -0.9130494   -0.3992400
   0.0080912   -0.2740301    0.0796396   -0.0001389   -0.8392627   -0.5437261
   0.0098714   -0.2726613    0.0775857   -0.0505869   -0.8569331   -0.5129393
   0.0082293   -0.2724779    0.0774020   -0.0109152   -0.8507905   -0.5253917
   0.0124739   -0.2729141    0.0773804   -0.1291466   -0.9777758   -0.1651533
   0.0154041   -0.2734405    0.0773475    0.0714071   -0.9974472   -0.0002106
   0.0156079   -0.2734328    0.0775379    0.8369437   -0.5467636    0.0239739
   0.0154332   -0.2734109    0.0780063    0.3376332   -0.9325779    0.1276807
   0.0157372   -0.2728448    0.0791698    0.6121686   -0.7060861    0.3559381
   0.0156320   -0.2730028    0.0789993    0.6018193   -0.7394469    0.3017148
   0.0155149   -0.2731432    0.0788257    0.5110291   -0.7971704    0.3215100
   0.0158157   -0.2730384    0.0785323    0.6632054   -0.6504854    0.3701720
   0.0157057   -0.2732195    0.0783798    0.3953364   -0.8151598    0.4233482
   0.0155972   -0.2733422    0.0781895    0.3808868   -0.8897188    0.2516459
   0.0101351   -0.2722305    0.0767925   -0.1279520   -0.8478652   -0.5145415
   0.0088024   -0.2718511    0.0763670   -0.0257106   -0.8475873   -0.5300328
   0.0120333   -0.2725315    0.0765375   -0.2243411   -0.8761990   -0.4265517
   0.0111385   -0.2722536    0.0764655   -0.1911178   -0.8457869   -0.4981150
   0.0125781   -0.2726368    0.0763695   -0.2760630   -0.8948105   -0.3508610
   0.0155423   -0.2719862    0.0800124    0.6595832   -0.0276649    0.7511222
   0.0158770   -0.2724205    0.0794971    0.7643535   -0.4552638    0.4566164
   0.0158830   -0.2721106    0.0796485    0.7477980   -0.1853755    0.6375219
   0.0107555   -0.2645390    0.0809731   -0.3936044    0.8675065    0.3041513
   0.0106905   -0.2641899    0.0789717   -0.5721666    0.8101610    0.1275327
   0.0096891   -0.2651436    0.0803296   -0.6961478    0.7178878    0.0039164
   0.0108265   -0.2642957    0.0799154   -0.4384266    0.8782439    0.1909708
   0.0078876   -0.2656534    0.0778186   -0.5936676    0.7569977    0.2729712
   0.0074514   -0.2658306    0.0772115   -0.5478913    0.8225262    0.1525312
   0.0086006   -0.2654674    0.0785605   -0.5176367    0.7558103    0.4010025
   0.0096835   -0.2651457    0.0799852   -0.6502516    0.7509806    0.1148957
   0.0094782   -0.2652140    0.0794845   -0.6262842    0.7564394    0.1885936
   0.0093181   -0.2652882    0.0793031   -0.5874107    0.7813664    0.2107493
   0.0102874   -0.2644397    0.0787349   -0.5345910    0.7891427    0.3024339
   0.0062808   -0.2734019    0.0807471   -0.3066632   -0.9514668   -0.0258588
   0.0060431   -0.2733573    0.0805502   -0.2133529   -0.9761760    0.0395082
   0.0062721   -0.2735582    0.0798033   -0.4089394   -0.9125551   -0.0034300
   0.0056406   -0.2733125    0.0797781   -0.2541589   -0.9670548    0.0144348
   0.0059759   -0.2734120    0.0798443   -0.3217554   -0.9412824   -0.1022784
   0.0053684   -0.2732197    0.0793773   -0.2484234   -0.9568944   -0.1504624
   0.0048315   -0.2731002    0.0795591   -0.4011084   -0.9048219   -0.1428615
   0.0047261   -0.2724473    0.0781809   -0.5979126   -0.7097633   -0.3724736
   0.0046148   -0.2719255    0.0774383   -0.7627024   -0.5326623   -0.3668186
   0.0042313   -0.2717413    0.0781140   -0.8850969   -0.3833510   -0.2639044
   0.0047769   -0.2721605    0.0774765   -0.6355127   -0.6783066   -0.3688140
   0.0052620   -0.2730415    0.0787445   -0.3159973   -0.9071296   -0.2779598
   0.0049808   -0.2725926    0.0780792   -0.4942110   -0.7621058   -0.4182706
   0.0052333   -0.2727845    0.0782207   -0.3133871   -0.8554262   -0.4123525
   0.0042172   -0.2711344    0.0774448   -0.9026006   -0.2811927   -0.3259490
   0.0042928   -0.2692967    0.0772342   -0.9237487    0.2178094   -0.3150357
   0.0045258   -0.2686838    0.0770227   -0.8494100    0.3017018   -0.4329880
   0.0040852   -0.2705080    0.0774514   -0.9720499    0.0058648   -0.2347010
   0.0043255   -0.2696741    0.0769927   -0.9057549    0.1367206   -0.4011427
   0.0041125   -0.2708435    0.0774854   -0.9388770   -0.1945572   -0.2840025
   0.0051250   -0.2678336    0.0767347   -0.7107659    0.4728684   -0.5207757
   0.0055459   -0.2673447    0.0767317   -0.6088328    0.5088192   -0.6086261
   0.0063948   -0.2664871    0.0766766   -0.5949576    0.6676127   -0.4475698
   0.0073539   -0.2658684    0.0766096   -0.5142381    0.8498981   -0.1150323
   0.0067994   -0.2662226    0.0765533   -0.5402724    0.7296580   -0.4191717
   0.0070195   -0.2740161    0.0802224   -0.5159289   -0.8565787    0.0094972
   0.0065133   -0.2736978    0.0800576   -0.5065903   -0.8614970   -0.0344850
   0.0075976   -0.2742928    0.0803074   -0.3945877   -0.9153741    0.0799427
   0.0073365   -0.2741577    0.0801236   -0.3712791   -0.9052477   -0.2065877
   0.0079465   -0.2743463    0.0805952   -0.1022787   -0.9719981    0.2115626
   0.0078518   -0.2743557    0.0805037   -0.1742522   -0.9843606   -0.0258934
   0.0076034   -0.2742952    0.0803039   -0.2704062   -0.9521563   -0.1424039
   0.0079644   -0.2743620    0.0804217   -0.0236349   -0.9993985   -0.0253766
   0.0111186   -0.2645761    0.0812889   -0.0873361    0.8790644    0.4686345
   0.0122610   -0.2663867    0.0827236    0.5017052    0.3303401    0.7994794
   0.0117640   -0.2646354    0.0812347    0.2406659    0.8381837    0.4894159
   0.0131627   -0.2658315    0.0819566    0.3937979    0.4633545    0.7938676
   0.0133159   -0.2651143    0.0811968    0.1731182    0.7367379    0.6536416
   0.0125694   -0.2649485    0.0812083    0.2557427    0.7961549    0.5483912
   0.0132549   -0.2657762    0.0818684    0.4227469    0.5232819    0.7399062
   0.0137241   -0.2655024    0.0813888    0.5519490    0.4203763    0.7201639
   0.0138269   -0.2651163    0.0810465    0.2233290    0.5619931    0.7964219
   0.0155489   -0.2678064    0.0788885    0.7767812    0.1735963    0.6053721
   0.0163939   -0.2708030    0.0788757    0.7327332    0.2364647    0.6381117
   0.0173348   -0.2696193    0.0773355    0.7304582    0.2673029    0.6284743
   0.0160913   -0.2716665    0.0794298    0.7258540    0.0454845    0.6863434
   0.0163597   -0.2715146    0.0791283    0.7662842    0.0095739    0.6424305
   0.0148335   -0.2660358    0.0796821    0.8929335    0.0030825    0.4501781
   0.0152657   -0.2669016    0.0790540    0.8503697    0.1503710    0.5042420
   0.0135427   -0.2666398    0.0819257    0.6756649    0.1049565    0.7296993
   0.0136367   -0.2659773    0.0817041    0.7220703    0.1124061    0.6826268
   0.0139693   -0.2660479    0.0813579    0.7943543    0.0874287    0.6011302
   0.0142696   -0.2664544    0.0808242    0.8730814   -0.0027351    0.4875668
   0.0133368   -0.2660604    0.0819837    0.5293486    0.2817967    0.8002379
   0.0075624   -0.2740452    0.0797655   -0.1916924   -0.8476126   -0.4947797
   0.0083529   -0.2719586    0.0765224    0.0428992   -0.8637927   -0.5020178
   0.0073455   -0.2735808    0.0791660   -0.0977402   -0.8462432   -0.5237550
   0.0073562   -0.2727201    0.0777242   -0.0224673   -0.8980851   -0.4392475
   0.0076476   -0.2725733    0.0774421    0.0419568   -0.8848872   -0.4639120
   0.0153104   -0.2734383    0.0766443   -0.2567196   -0.9619385   -0.0936454
   0.0156079   -0.2734328    0.0775379    0.6841527   -0.7254972    0.0747590
   0.0156597   -0.2734537    0.0771625   -0.0581224   -0.9940116    0.0925355
   0.0156079   -0.2734328    0.0775379    0.8770287   -0.4743152    0.0764573
   0.0156033   -0.2733822    0.0778598    0.2485150   -0.9588254    0.1374563
   0.0159807   -0.2726528    0.0788651    0.8015121   -0.5644117    0.1975292
   0.0158939   -0.2728387    0.0786982    0.7811414   -0.5741871    0.2452085
   0.0157358   -0.2731971    0.0783844    0.5946222   -0.6850729    0.4208320
   0.0160375   -0.2728133    0.0782231    0.8953329   -0.3834734    0.2265552
   0.0159918   -0.2730547    0.0780681    0.7932125   -0.5427335    0.2761419
   0.0157251   -0.2732191    0.0783642    0.5396154   -0.7703889    0.3395825
   0.0159045   -0.2732480    0.0778970    0.6571398   -0.7222196    0.2157918
   0.0157717   -0.2733640    0.0777207    0.5729528   -0.8049186    0.1543735
   0.0100519   -0.2719066    0.0762503   -0.1279218   -0.8429543   -0.5225553
   0.0085068   -0.2717490    0.0761430    0.0894981   -0.8414035   -0.5329449
   0.0084952   -0.2714573    0.0757506    0.0179087   -0.7452714   -0.6665206
   0.0096452   -0.2713556    0.0755170   -0.1543629   -0.7834376   -0.6019947
   0.0104005   -0.2712293    0.0750320   -0.2742026   -0.7712837   -0.5743992
   0.0107776   -0.2713163    0.0749800   -0.3478279   -0.7916601   -0.5022848
   0.0117001   -0.2718506    0.0753146   -0.3450184   -0.8454299   -0.4076894
   0.0125319   -0.2721356    0.0752118   -0.3715188   -0.8647360   -0.3379428
   0.0134203   -0.2725373    0.0753328   -0.3452821   -0.9089984   -0.2334570
   0.0161539   -0.2720000    0.0793303    0.7993500   -0.2084928    0.5635338
   0.0163763   -0.2720556    0.0788896    0.8125429   -0.5034722    0.2937513
   0.0110580   -0.2643529    0.0807194   -0.2469341    0.9224259    0.2969074
   0.0108798   -0.2638978    0.0782962   -0.4238322    0.8863156    0.1865767
   0.0114808   -0.2638744    0.0794764   -0.3531854    0.9153085    0.1935727
   0.0114333   -0.2642035    0.0805157   -0.1262622    0.9266344    0.3541278
   0.0114648   -0.2640069    0.0800184   -0.2696243    0.9183427    0.2897402
   0.0079380   -0.2654849    0.0773260   -0.6065163    0.7863628    0.1173521
   0.0087662   -0.2651564    0.0782397   -0.5522339    0.7369364    0.3898237
   0.0085251   -0.2650087    0.0772810   -0.5969270    0.7955175    0.1040679
   0.0093313   -0.2648180    0.0782988   -0.4744919    0.7387628    0.4786304
   0.0099107   -0.2642568    0.0778570   -0.4389054    0.8615491    0.2551374
   0.0095050   -0.2645193    0.0779796    0.3175562    0.8565217    0.4068521
   0.0065569   -0.2736524    0.0796457   -0.3219269   -0.9086140   -0.2660519
   0.0051774   -0.2722736    0.0771718   -0.3687657   -0.8301107   -0.4182441
   0.0052191   -0.2725143    0.0777162   -0.2567057   -0.8609666   -0.4391340
   0.0049671   -0.2720842    0.0770683   -0.5408041   -0.7075751   -0.4548279
   0.0046393   -0.2716185    0.0769863   -0.7959753   -0.4212868   -0.4346731
   0.0049917   -0.2717771    0.0766163   -0.6617202   -0.5119757   -0.5477292
   0.0060354   -0.2731796    0.0787711   -0.1497713   -0.8875759   -0.4356347
   0.0045609   -0.2713284    0.0769053   -0.8325475   -0.2831576   -0.4761160
   0.0042103   -0.2704653    0.0771339   -0.8459496   -0.1082710   -0.5221559
   0.0045768   -0.2695395    0.0766677   -0.7843190    0.0876944   -0.6141282
   0.0051010   -0.2681156    0.0765804   -0.6821152    0.3424860   -0.6460822
   0.0048094   -0.2690281    0.0765027   -0.6978954    0.1912276   -0.6901986
   0.0041687   -0.2702233    0.0772092   -0.9269602    0.0735804   -0.3678732
   0.0042971   -0.2700575    0.0770082   -0.8117528    0.0100739   -0.5839144
   0.0054493   -0.2684031    0.0761464   -0.5760671    0.3374874   -0.7444790
   0.0070059   -0.2666121    0.0759412   -0.5228923    0.5004522   -0.6900227
   0.0066287   -0.2670070    0.0760283   -0.5775564    0.3843107   -0.7202319
   0.0062490   -0.2676624    0.0759908   -0.5596663    0.3921156   -0.7300815
   0.0080253   -0.2653737    0.0768394   -0.5756891    0.8039184   -0.1493228
   0.0076788   -0.2658005    0.0763213   -0.4921830    0.7407152   -0.4572712
   0.0070916   -0.2662698    0.0761808   -0.4656184    0.6405845   -0.6106153
   0.0074456   -0.2659891    0.0762662   -0.4377249    0.6877966   -0.5790792
   0.0069195   -0.2738878    0.0798680   -0.3796759   -0.8714206   -0.3105999
   0.0113951   -0.2644158    0.0809991    0.0838404    0.8862523    0.4555519
   0.0120841   -0.2646257    0.0809855    0.2894381    0.8163090    0.4998651
   0.0130833   -0.2649500    0.0810600    0.0995342    0.7937565    0.6000362
   0.0133142   -0.2648063    0.0808656    0.0262232    0.7451053    0.6664311
   0.0131002   -0.2646478    0.0805995   -0.1255477    0.7358517    0.6654022
   0.0125883   -0.2646478    0.0807480    0.2405748    0.8173011    0.5235863
   0.0136077   -0.2658998    0.0817141    0.6357065    0.3051428    0.7090593
   0.0140287   -0.2654482    0.0810751    0.7030434    0.0908789    0.7053163
   0.0139909   -0.2653508    0.0810862    0.5322204    0.2788889    0.7993512
   0.0141050   -0.2656331    0.0810582    0.7768932    0.1555441    0.6101172
   0.0133486   -0.2647273    0.0807901   -0.1588728    0.5754688    0.8022438
   0.0137417   -0.2648397    0.0809121    0.0397048    0.4829906    0.8747249
   0.0141708   -0.2648912    0.0808484    0.3988899    0.3056456    0.8645621
   0.0160299   -0.2675532    0.0782123    0.7721621    0.2557332    0.5816925
   0.0156803   -0.2673848    0.0785888    0.7928760    0.1994221    0.5758286
   0.0167209   -0.2708158    0.0785512    0.7353806    0.2080967    0.6449117
   0.0174040   -0.2702529    0.0775866    0.7618351    0.2148820    0.6110917
   0.0168186   -0.2668263    0.0768030    0.7935151    0.3128244    0.5219911
   0.0181006   -0.2698997    0.0765363    0.7981091    0.2024981    0.5674648
   0.0166614   -0.2716080    0.0787432    0.8301109   -0.2142036    0.5148133
   0.0168660   -0.2712376    0.0784862    0.8263184    0.0260944    0.5625984
   0.0166534   -0.2717313    0.0786774    0.8073909   -0.3270696    0.4910655
   0.0147717   -0.2648914    0.0801634    0.9473112   -0.1075632    0.3017146
   0.0149373   -0.2656496    0.0793405    0.9640029    0.0873602    0.2511308
   0.0145754   -0.2649983    0.0805509    0.7932434   -0.0309179    0.6081192
   0.0143444   -0.2655075    0.0807185    0.8073464   -0.0498626    0.5879672
   0.0152023   -0.2658925    0.0788512    0.8919616    0.1703671    0.4187833
   0.0142338   -0.2659296    0.0808716    0.8592975   -0.0120403    0.5113344
   0.0154700   -0.2664724    0.0785254    0.8417631    0.2133209    0.4959124
   0.0070777   -0.2737325    0.0794679   -0.2203882   -0.8584882   -0.4630627
   0.0075429   -0.2716776    0.0759110    0.0615316   -0.8049455   -0.5901496
   0.0056612   -0.2720145    0.0765009   -0.1411993   -0.8778469   -0.4576544
   0.0053654   -0.2723716    0.0772985   -0.1285765   -0.9032532   -0.4093919
   0.0054210   -0.2721438    0.0768382   -0.2060816   -0.8618173   -0.4634666
   0.0067748   -0.2719505    0.0763151    0.0279809   -0.8587066   -0.5117031
   0.0059083   -0.2718860    0.0761692   -0.1090955   -0.8106088   -0.5753361
   0.0150396   -0.2731043    0.0753155   -0.3134199   -0.9330264   -0.1767191
   0.0158736   -0.2735012    0.0758941   -0.1798868   -0.9641438   -0.1951089
   0.0158062   -0.2735645    0.0764210   -0.0318754   -0.9994872    0.0030514
   0.0156544   -0.2735091    0.0768515   -0.0666658   -0.9872266    0.1447040
   0.0140802   -0.2727870    0.0752024   -0.3305081   -0.9274201   -0.1750895
   0.0159314   -0.2733631    0.0772491    0.4800453   -0.8629307    0.1578197
   0.0157860   -0.2734598    0.0770702    0.2854804   -0.9340523    0.2145864
   0.0161637   -0.2723681    0.0785481    0.8443980   -0.5264952    0.0989689
   0.0161954   -0.2725713    0.0778634    0.9268335   -0.2840500    0.2455511
   0.0163768   -0.2722038    0.0775837    0.9092270   -0.3552271    0.2170711
   0.0161329   -0.2730332    0.0775889    0.8493550   -0.4793097    0.2210391
   0.0160481   -0.2732226    0.0774221    0.7262694   -0.6369333    0.2585513
   0.0092496   -0.2709752    0.0752255   -0.2035063   -0.5812152   -0.7878922
   0.0082897   -0.2712828    0.0755447    0.0187914   -0.6554457   -0.7550085
   0.0089841   -0.2708226    0.0751607   -0.1151213   -0.5262727   -0.8424869
   0.0097055   -0.2710123    0.0751153   -0.2951377   -0.6052382   -0.7393108
   0.0109340   -0.2709264    0.0744267   -0.4443456   -0.5759445   -0.6861813
   0.0100055   -0.2708283    0.0748582   -0.3953336   -0.5156824   -0.7601204
   0.0120353   -0.2718152    0.0750199   -0.4132241   -0.8316875   -0.3708662
   0.0114317   -0.2712733    0.0744561   -0.4216210   -0.7638644   -0.4886173
   0.0116105   -0.2708757    0.0738344   -0.5206980   -0.5548061   -0.6488943
   0.0140161   -0.2723800    0.0735398   -0.4005935   -0.8653753   -0.3010820
   0.0168611   -0.2716682    0.0782798    0.8256961   -0.5235905    0.2099497
   0.0118213   -0.2637424    0.0792331   -0.1540457    0.9806924    0.1204674
   0.0114435   -0.2637366    0.0782702   -0.1600310    0.9838619    0.0800362
   0.0107569   -0.2637325    0.0770234   -0.2880282    0.9448229    0.1560433
   0.0117429   -0.2638674    0.0797207   -0.1394383    0.9513338    0.2748107
   0.0116065   -0.2640332    0.0801363    0.0281898    0.9121950    0.4087856
   0.0121385   -0.2643006    0.0804984    0.2351576    0.8467479    0.4771991
   0.0091173   -0.2648099    0.0781062   -0.4023946    0.8220074    0.4029671
   0.0089866   -0.2646840    0.0774269   -0.5824218    0.7933370    0.1772042
   0.0097419   -0.2641462    0.0765168   -0.5209763    0.8525402   -0.0419391
   0.0081831   -0.2653694    0.0763678   -0.6212067    0.7378500   -0.2639688
   0.0098731   -0.2642671    0.0778176   -0.2028960    0.9536342    0.2222950
   0.0095050   -0.2645193    0.0779796    0.7588549    0.5888201    0.2782626
   0.0095050   -0.2645193    0.0779796    0.7633789    0.6134713    0.2022516
   0.0051776   -0.2719885    0.0766877   -0.4008741   -0.7578267   -0.5147802
   0.0047202   -0.2712557    0.0766123   -0.7569633   -0.2624016   -0.5984580
   0.0051041   -0.2713840    0.0762853   -0.6363646   -0.2291865   -0.7365553
   0.0052380   -0.2716468    0.0762847   -0.5579297   -0.4428963   -0.7018243
   0.0047862   -0.2705137    0.0764026   -0.7058616   -0.0697746   -0.7049048
   0.0049914   -0.2700300    0.0761991   -0.6092223    0.0165774   -0.7928262
   0.0055653   -0.2692941    0.0758343   -0.5861134    0.1116453   -0.8025001
   0.0058006   -0.2687651    0.0757573   -0.5483216    0.1963680   -0.8128856
   0.0062215   -0.2684766    0.0755832   -0.5072485    0.2755106   -0.8165739
   0.0069765   -0.2675641    0.0754672   -0.4831320    0.3539432   -0.8008169
   0.0074829   -0.2663899    0.0758647   -0.3253413    0.5311656   -0.7823146
   0.0073684   -0.2672805    0.0753860   -0.2877027    0.3902311   -0.8746124
   0.0065992   -0.2682173    0.0754326   -0.5491311    0.2606840   -0.7940396
   0.0079018   -0.2656251    0.0763912   -0.5733579    0.7340968   -0.3638167
   0.0080248   -0.2657656    0.0760362   -0.5643804    0.6038103   -0.5629280
   0.0079707   -0.2660213    0.0758671   -0.4453731    0.5234547   -0.7263869
   0.0127684   -0.2644785    0.0803741    0.0721933    0.7643693    0.6407244
   0.0130856   -0.2643302    0.0803908   -0.3572122    0.4260763    0.8311789
   0.0133612   -0.2644507    0.0806068   -0.2502622    0.5266845    0.8123868
   0.0142954   -0.2651610    0.0808367    0.6519513    0.0745434    0.7545879
   0.0143203   -0.2653295    0.0807801    0.7374260   -0.1220489    0.6643093
   0.0137486   -0.2644559    0.0806658   -0.0153748    0.6075703    0.7941171
   0.0142996   -0.2644692    0.0806063    0.1830378    0.5016081    0.8455096
   0.0144979   -0.2646797    0.0806297    0.5643352    0.2826570    0.7756486
   0.0162158   -0.2661266    0.0771969    0.7644767    0.3514847    0.5404016
   0.0159128   -0.2659412    0.0775071    0.7952153    0.3404910    0.5016956
   0.0172616   -0.2706760    0.0778757    0.7961569    0.0610249    0.6020052
   0.0170830   -0.2711242    0.0781201    0.8588324   -0.0621672    0.5084705
   0.0175019   -0.2705521    0.0775355    0.8269276    0.0448379    0.5605178
   0.0177136   -0.2703960    0.0771849    0.8256584    0.1005422    0.5551392
   0.0180701   -0.2692523    0.0761935    0.7998230    0.3165483    0.5099807
   0.0176685   -0.2681112    0.0761370    0.8144351    0.3075730    0.4920308
   0.0176758   -0.2677628    0.0759128    0.8248007    0.3062062    0.4753331
   0.0169423   -0.2664453    0.0763429    0.7870633    0.4535606    0.4181078
   0.0162883   -0.2657722    0.0768112    0.7572003    0.4440750    0.4790042
   0.0172244   -0.2666498    0.0760208    0.8119466    0.4084672    0.4170099
   0.0183217   -0.2697949    0.0761692    0.8324436    0.2063680    0.5142470
   0.0179513   -0.2703310    0.0768149    0.8417932   -0.0558388    0.5369043
   0.0181874   -0.2702096    0.0764700    0.8532726   -0.0256415    0.5208343
   0.0170716   -0.2711394    0.0781381    0.8858743   -0.2014667    0.4178969
   0.0148609   -0.2649384    0.0796039    0.9844812   -0.1579552    0.0764655
   0.0147265   -0.2645649    0.0802749    0.8264824    0.1869546    0.5310130
   0.0148880   -0.2648240    0.0796827    0.9569915   -0.2526809    0.1425469
   0.0149253   -0.2644801    0.0798786    0.9548595    0.0467279    0.2933597
