NORM_ASCII
1321 2638
   0.0219096   -0.4072366    0.0632770    0.7379077   -0.2304569    0.6343357
   0.0227441   -0.4070183    0.0615917    0.9668427   -0.1841703    0.1769082
   0.0226872   -0.4073959    0.0613281    0.9648959   -0.2399861   -0.1066889
   0.0212788   -0.4078349    0.0636276    0.4110852   -0.0151703    0.9114707
   0.0210178   -0.4083516    0.0637650    0.4412037    0.1596632    0.8830895
   0.0193731   -0.4035905    0.0634380   -0.9669561   -0.1826203    0.1778926
   0.0192820   -0.4030908    0.0634224   -0.9607488   -0.2742704    0.0416845
   0.0193475   -0.4031845    0.0640015   -0.9479529   -0.2759408    0.1588774
   0.0191065   -0.4024414    0.0628213   -0.9468359   -0.3006351   -0.1145443
   0.0207478   -0.4065834    0.0639188    0.0612027   -0.1154835    0.9914221
   0.0202576   -0.4053178    0.0641438   -0.3554387   -0.3097597    0.8818800
   0.0199030   -0.4044715    0.0642046   -0.6532549   -0.2857106    0.7011615
   0.0209161   -0.4061020    0.0639910    0.1369203   -0.2118445    0.9676646
   0.0196879   -0.4036152    0.0644417   -0.6407580   -0.6636259    0.3860439
   0.0195667   -0.4036201    0.0642351   -0.7802223   -0.5252858    0.3395998
   0.0211045   -0.4069660    0.0637979    0.3909340   -0.1154817    0.9131454
   0.0222983   -0.4051090    0.0604656    0.3847097   -0.2259444   -0.8949568
   0.0216483   -0.4019617    0.0596916   -0.4742507   -0.4109106   -0.7786134
   0.0222994   -0.4022867    0.0595005   -0.3853311   -0.4775504   -0.7895983
   0.0212458   -0.4020596    0.0599956   -0.5287587   -0.3595476   -0.7688561
   0.0225698   -0.4042669    0.0603297    0.3676376   -0.3763371   -0.8504193
   0.0227982   -0.4031375    0.0598263    0.1233629   -0.4562083   -0.8812806
   0.0228306   -0.4029977    0.0597576    0.0342586   -0.5208188   -0.8529796
   0.0231509   -0.4025850    0.0594289   -0.2053900   -0.6000161   -0.7731724
   0.0205930   -0.4007827    0.0597101   -0.6033347   -0.4044586   -0.6873139
   0.0190100   -0.4020184    0.0625232   -0.8995655   -0.3875370   -0.2014870
   0.0189063   -0.4015206    0.0622263   -0.8123039   -0.3917230   -0.4321059
   0.0204403   -0.4008249    0.0598915   -0.4838812   -0.4664189   -0.7404812
   0.0197601   -0.4004968    0.0603397   -0.6469616   -0.4348230   -0.6263942
   0.0200765   -0.4004400    0.0599817   -0.6085497   -0.3755567   -0.6990168
   0.0203276   -0.4005715    0.0598450   -0.5905680   -0.4179311   -0.6903354
   0.0189221   -0.4002129    0.0612394   -0.7752601   -0.3706245   -0.5114776
   0.0191680   -0.4002165    0.0608355   -0.7801161   -0.3689610   -0.5052591
   0.0192868   -0.4001787    0.0606341   -0.7231535   -0.3740452   -0.5806369
   0.0187145   -0.4008400    0.0618921   -0.7575699   -0.4282504   -0.4926352
   0.0184238   -0.4004475    0.0620251   -0.8255233   -0.3570441   -0.4370707
   0.0188066   -0.3998529    0.0611995   -0.8378448   -0.1768711   -0.5164617
   0.0185678   -0.3999299    0.0616011   -0.8314049   -0.1356842   -0.5388466
   0.0226678   -0.4073921    0.0612444    0.9161428   -0.2645779   -0.3011326
   0.0227106   -0.4072855    0.0612778    0.9563422   -0.2403507   -0.1662560
   0.0227611   -0.4069102    0.0611510    0.8832663   -0.1747374   -0.4350948
   0.0226175   -0.4069017    0.0609785    0.6575327   -0.1384581   -0.7405944
   0.0226334   -0.4059928    0.0608416    0.5612399   -0.1458262   -0.8147052
   0.0212992   -0.4064756    0.0638277    0.3474097   -0.2035246    0.9153602
   0.0217764   -0.4067970    0.0635063    0.5453313   -0.2173789    0.8095432
   0.0228422   -0.4067176    0.0613982    0.9759789   -0.2033650    0.0781528
   0.0227655   -0.4069416    0.0615479    0.9703373   -0.1914947    0.1475648
   0.0226796   -0.4051505    0.0630657    0.8661924   -0.2502440    0.4325375
   0.0221764   -0.4064111    0.0632226    0.8218411   -0.2277176    0.5222278
   0.0229733   -0.4042579    0.0627582    0.9521671   -0.1148031    0.2831926
   0.0229583   -0.4059904    0.0615215    0.9801147   -0.1671636    0.1069181
   0.0221657   -0.4056619    0.0635472    0.7046924   -0.2607945    0.6598445
   0.0191879   -0.4027288    0.0636688   -0.9549726   -0.2866777    0.0764412
   0.0194422   -0.4031974    0.0643816   -0.8818844   -0.4272621    0.1993163
   0.0187911   -0.4017404    0.0632377   -0.8918106   -0.4416719   -0.0979783
   0.0199416   -0.4040309    0.0644886   -0.6359712   -0.4055792    0.6565410
   0.0204365   -0.4044039    0.0645464   -0.1765566   -0.4079372    0.8957762
   0.0202604   -0.4044900    0.0644371   -0.3920585   -0.3820573    0.8368527
   0.0210014   -0.4064603    0.0638994    0.3781597   -0.1430966    0.9146139
   0.0211292   -0.4058474    0.0640212    0.1897788   -0.2893447    0.9382237
   0.0196875   -0.4036152    0.0644417   -0.5035473   -0.8311467    0.2358713
   0.0196885   -0.4036154    0.0644425   -0.5855320   -0.7640451    0.2709010
   0.0228225   -0.4055050    0.0608800    0.6385832   -0.2193644   -0.7376251
   0.0226391   -0.4057653    0.0608036    0.5582432   -0.1520426   -0.8156271
   0.0217640   -0.4013762    0.0592561   -0.5293813   -0.4775495   -0.7012146
   0.0211106   -0.4009947    0.0594501   -0.4975363   -0.4222409   -0.7577403
   0.0231435   -0.4022967    0.0591727   -0.2281729   -0.5502779   -0.8032007
   0.0219800   -0.4013978    0.0591072   -0.5054166   -0.4119116   -0.7582103
   0.0222035   -0.4014247    0.0589622   -0.4046077   -0.4845750   -0.7755512
   0.0226172   -0.4019352    0.0591655   -0.2817796   -0.5110194   -0.8120711
   0.0229298   -0.4034464    0.0600556    0.2700211   -0.5091923   -0.8171975
   0.0231039   -0.4035690    0.0601932    0.3637723   -0.5155628   -0.7757994
   0.0229417   -0.4043174    0.0605436    0.5295197   -0.3807785   -0.7580347
   0.0232201   -0.4032389    0.0599675    0.2010547   -0.5859795   -0.7849873
   0.0231258   -0.4028413    0.0596685   -0.0307023   -0.6592149   -0.7513276
   0.0233450   -0.4024921    0.0592757   -0.0046684   -0.6468936   -0.7625659
   0.0232369   -0.4026843    0.0594718    0.0052531   -0.7270972   -0.6865145
   0.0204329   -0.4003495    0.0596494    0.2241599   -0.2453839   -0.9431538
   0.0206258   -0.4003007    0.0594927   -0.5511535   -0.1817942   -0.8143591
   0.0207738   -0.4007370    0.0595459   -0.5432103   -0.3037567   -0.7827224
   0.0185446   -0.4009472    0.0623320   -0.8671530   -0.4321546   -0.2475643
   0.0187299   -0.4013440    0.0624855   -0.8949362   -0.4350128   -0.0992625
   0.0204329   -0.4003495    0.0596494    0.7511878   -0.3086263   -0.5834952
   0.0197316   -0.4000536    0.0600828   -0.6323742   -0.2666403   -0.7273279
   0.0195707   -0.4000959    0.0602594   -0.6765689   -0.3171484   -0.6645836
   0.0202456   -0.4003957    0.0598102   -0.4245167   -0.3280141   -0.8439149
   0.0201180   -0.3999579    0.0597688   -0.5487870   -0.1253144   -0.8265162
   0.0200373   -0.3999783    0.0598337   -0.5631555   -0.1703016   -0.8086120
   0.0189238   -0.3998166    0.0609967   -0.8348211   -0.1804032   -0.5201235
   0.0191646   -0.3997400    0.0605962   -0.8102894   -0.1484101   -0.5669263
   0.0194153   -0.4001103    0.0604410   -0.7116563   -0.2943426   -0.6378932
   0.0193030   -0.3996989    0.0604065   -0.7525526   -0.1548965   -0.6400560
   0.0184426   -0.3999683    0.0617989   -0.8443720   -0.0794744   -0.5298300
   0.0183111   -0.4004037    0.0622362   -0.8951529   -0.3065427   -0.3236245
   0.0182093   -0.4005410    0.0627143   -0.9104464   -0.3487314   -0.2224271
   0.0185160   -0.4009162    0.0623734   -0.8541842   -0.4674829   -0.2276603
   0.0182272   -0.4000407    0.0622148   -0.9272184   -0.1044010   -0.3596756
   0.0183226   -0.4000058    0.0619996   -0.8739957   -0.0770517   -0.4797860
   0.0186680   -0.3994391    0.0614238   -0.8864137    0.0814316   -0.4556749
   0.0188839   -0.3993667    0.0610078   -0.8733665    0.0598088   -0.4833776
   0.0185547   -0.3994760    0.0616284   -0.8762259    0.1152062   -0.4679271
   0.0227769   -0.4066368    0.0610918    0.8494465   -0.1650236   -0.5012064
   0.0228860   -0.4064424    0.0612943    0.9616195   -0.1654029   -0.2189290
   0.0227903   -0.4064387    0.0610463    0.7954913   -0.1594822   -0.5846016
   0.0228058   -0.4059721    0.0609641    0.7140481   -0.1490316   -0.6840503
   0.0218117   -0.4059199    0.0637426    0.4755395   -0.2701031    0.8372016
   0.0226414   -0.4048235    0.0633421    0.8539959   -0.2198026    0.4715695
   0.0230871   -0.4047467    0.0619657    0.9627094   -0.1470794    0.2270643
   0.0230959   -0.4037433    0.0623215    0.9502457   -0.0614466    0.3053808
   0.0229674   -0.4038053    0.0627891    0.9845886   -0.0004587    0.1748859
   0.0227359   -0.4039008    0.0634681    0.9045911   -0.0687817    0.4206947
   0.0229548   -0.4059690    0.0612471    0.9750840   -0.1407163   -0.1714938
   0.0230373   -0.4055026    0.0613313    0.9790634   -0.1620945   -0.1231268
   0.0230756   -0.4052539    0.0616469    0.9803176   -0.1816932    0.0772334
   0.0225534   -0.4045131    0.0635884    0.7668793   -0.2281072    0.5998861
   0.0220269   -0.4054254    0.0637577    0.6063656   -0.2984622    0.7370489
   0.0196324   -0.4031197    0.0652690   -0.6892841   -0.6867315    0.2308405
   0.0194043   -0.4028332    0.0654310   -0.7839569   -0.6146370    0.0873669
   0.0198036   -0.4036127    0.0646566   -0.6607678   -0.5996534    0.4514441
   0.0185887   -0.4014854    0.0639296   -0.8703562   -0.4865928   -0.0755479
   0.0193025   -0.4027864    0.0645536   -0.8636553   -0.4974479    0.0815172
   0.0187828   -0.4019389    0.0643135   -0.8659869   -0.4953907   -0.0682249
   0.0185025   -0.4013307    0.0636476   -0.8548918   -0.5152764   -0.0604165
   0.0183450   -0.4010444    0.0635771   -0.9302934   -0.3643492   -0.0424711
   0.0181772   -0.4005889    0.0632397   -0.9564032   -0.2891572   -0.0410002
   0.0181834   -0.4005676    0.0629707   -0.9126410   -0.3933098   -0.1113271
   0.0200858   -0.4039527    0.0646496   -0.5027180   -0.5126863    0.6960081
   0.0211102   -0.4050078    0.0643480    0.0679916   -0.3674370    0.9275598
   0.0202813   -0.4039905    0.0647430   -0.3793626   -0.6050227    0.7000225
   0.0212604   -0.4047045    0.0644594    0.1037174   -0.4176526    0.9026677
   0.0209092   -0.4038919    0.0649314   -0.0498779   -0.5669138    0.8222657
   0.0214269   -0.4050894    0.0642536    0.3403548   -0.3706924    0.8641445
   0.0229569   -0.4054955    0.0610650    0.8950948   -0.1701321   -0.4121412
   0.0230383   -0.4047404    0.0608423    0.7835509   -0.3117937   -0.5374315
   0.0217693   -0.4009709    0.0590161   -0.4523354   -0.3140503   -0.8347246
   0.0215530   -0.4010226    0.0591591   -0.4460196   -0.3179488   -0.8366451
   0.0215393   -0.4010258    0.0591704   -0.6091271   -0.4311512   -0.6656372
   0.0212386   -0.4006254    0.0592000   -0.5174820   -0.2610473   -0.8149029
   0.0209652   -0.4006898    0.0593878   -0.5126483   -0.2517297   -0.8208678
   0.0234447   -0.4022072    0.0590819    0.0919162   -0.4456279   -0.8904871
   0.0232128   -0.4020847    0.0590356   -0.1736011   -0.4407645   -0.8806755
   0.0222363   -0.4013341    0.0588987   -0.4052099   -0.3109352   -0.8597233
   0.0219300   -0.4009363    0.0589368   -0.3809190   -0.1681059   -0.9091980
   0.0225190   -0.4014927    0.0588681   -0.2207056   -0.4587951   -0.8606951
   0.0230211   -0.4016485    0.0588766   -0.0306159   -0.3380801   -0.9406192
   0.0232992   -0.4035405    0.0602647    0.2841567   -0.6268838   -0.7254458
   0.0233057   -0.4035420    0.0602686    0.4975997   -0.5768558   -0.6477900
   0.0232106   -0.4038758    0.0604612    0.5860487   -0.4732505   -0.6577088
   0.0235066   -0.4029901    0.0598804    0.4959549   -0.5708174   -0.6543670
   0.0234088   -0.4032964    0.0600736    0.4487185   -0.6230389   -0.6406827
   0.0233197   -0.4029561    0.0597736    0.1541637   -0.6791696   -0.7176087
   0.0234628   -0.4025211    0.0593429    0.2296589   -0.7085929   -0.6671978
   0.0236349   -0.4022806    0.0591880    0.4389167   -0.5614003   -0.7015567
   0.0234251   -0.4027343    0.0595785    0.4460782   -0.6922378   -0.5672927
   0.0235461   -0.4025067    0.0593580    0.4398133   -0.6893349   -0.5756576
   0.0205913   -0.3998517    0.0595064   -0.4782226    0.0510250   -0.8767551
   0.0204417   -0.3998842    0.0595783   -0.2198706    0.0362044   -0.9748570
   0.0204329   -0.4003495    0.0596494    0.7581341   -0.1149349   -0.6418899
   0.0208567   -0.4002483    0.0593583   -0.3340811   -0.0558152   -0.9408903
   0.0208596   -0.4002586    0.0593591   -0.3374366   -0.1228185   -0.9333017
   0.0196478   -0.3996096    0.0600676   -0.6633321   -0.0745266   -0.7446048
   0.0198369   -0.3995636    0.0599077   -0.5613089    0.0121868   -0.8275167
   0.0194664   -0.3996552    0.0602318   -0.6935618   -0.0895185   -0.7148136
   0.0203385   -0.3999071    0.0596281   -0.5089078   -0.0699091   -0.8579776
   0.0200778   -0.3995096    0.0597792   -0.4633596    0.0999771   -0.8805126
   0.0203486   -0.3994503    0.0596690   -0.3837093    0.1972491   -0.9021419
   0.0190044   -0.3993293    0.0608072   -0.8319899    0.0906752   -0.5473307
   0.0192829   -0.3992472    0.0604291   -0.7565549    0.0852583   -0.6483485
   0.0184362   -0.3995140    0.0618301   -0.8681996    0.1632682   -0.4685861
   0.0181657   -0.4000713    0.0624502   -0.9548225   -0.1183739   -0.2725832
   0.0180972   -0.4001772    0.0629502   -0.9854402   -0.1676736   -0.0281623
   0.0181040   -0.4001001    0.0626862   -0.9838831   -0.0895016   -0.1548017
   0.0183166   -0.3995514    0.0620308   -0.9024016    0.1232749   -0.4128859
   0.0182147   -0.3995907    0.0622906   -0.9394776    0.1839739   -0.2890251
   0.0187318   -0.3989763    0.0614963   -0.8874102    0.2942379   -0.3548622
   0.0188273   -0.3989414    0.0612811   -0.8739168    0.2771353   -0.3993313
   0.0190624   -0.3988673    0.0608766   -0.8255769    0.2925888   -0.4825087
   0.0186375   -0.3990115    0.0617120   -0.8781647    0.3254669   -0.3505681
   0.0229323   -0.4059666    0.0611618    0.9090807   -0.1472378   -0.3897348
   0.0232435   -0.4045478    0.0612921    0.9677916   -0.2506616    0.0234134
   0.0232658   -0.4041113    0.0616032    0.9486263   -0.1932285    0.2505411
   0.0231702   -0.4036458    0.0620984    0.9295775   -0.0542079    0.3646192
   0.0232198   -0.4032497    0.0621580    0.9098683   -0.1434828    0.3892973
   0.0233655   -0.4036424    0.0616653    0.9299966   -0.1288124    0.3442581
   0.0231331   -0.4028294    0.0624129    0.9014137   -0.0434837    0.4307698
   0.0228773   -0.4033844    0.0630422    0.9367091    0.0076738    0.3500246
   0.0229464   -0.4033130    0.0628145    0.9955122    0.0186480    0.0927777
   0.0229558   -0.4028965    0.0628518    0.9821952   -0.0466539    0.1819778
   0.0224851   -0.4039792    0.0638626    0.7738866   -0.1428028    0.6170145
   0.0226219   -0.4034844    0.0637064    0.8729613   -0.0306723    0.4868242
   0.0231027   -0.4050214    0.0611745    0.9443711   -0.2397384   -0.2251417
   0.0222487   -0.4044855    0.0639598    0.6899391   -0.2655159    0.6734132
   0.0219046   -0.4045701    0.0642291    0.5467129   -0.3470943    0.7619912
   0.0193432   -0.4027039    0.0656792   -0.7343979   -0.6298207    0.2529537
   0.0199239   -0.4035571    0.0648591   -0.5522997   -0.7029469    0.4481414
   0.0199722   -0.4034530    0.0651691   -0.5181000   -0.8151341    0.2590924
   0.0196929   -0.4031454    0.0655765   -0.7044024   -0.6932345    0.1524571
   0.0189424   -0.4022326    0.0646583   -0.8033476   -0.5953542    0.0136409
   0.0188033   -0.4020829    0.0648624   -0.8264764   -0.5627314    0.0164327
   0.0190574   -0.4024463    0.0655313   -0.8032035   -0.5758105    0.1526644
   0.0185269   -0.4015377    0.0644348   -0.9246877   -0.3784046   -0.0419828
   0.0183556   -0.4011001    0.0638529   -0.9192132   -0.3937489   -0.0029750
   0.0183695   -0.4010918    0.0642302   -0.9574453   -0.2693075    0.1037882
   0.0187448   -0.4019653    0.0645398   -0.8535509   -0.5178550   -0.0572458
   0.0181792   -0.4006118    0.0635126   -0.9756355   -0.2180176    0.0245684
   0.0182012   -0.4006314    0.0637981   -0.9743500   -0.1986327    0.1057692
   0.0181575   -0.4001824    0.0638067   -0.9940753   -0.0248291    0.1058193
   0.0200200   -0.4035948    0.0649121   -0.5477423   -0.6484767    0.5286362
   0.0203005   -0.4036586    0.0650720   -0.0992021   -0.7698722    0.6304409
   0.0200821   -0.4035911    0.0650112   -0.4478350   -0.7633717    0.4655186
   0.0215481   -0.4046485    0.0644066    0.2770699   -0.4546766    0.8464641
   0.0208170   -0.4032809    0.0654035    0.2953508   -0.6399974    0.7093456
   0.0232002   -0.4045013    0.0609555    0.8548038   -0.3745626   -0.3591843
   0.0216693   -0.4005293    0.0589912   -0.3458340   -0.0166524   -0.9381479
   0.0215989   -0.4005451    0.0590163   -0.3517564   -0.0459043   -0.9349653
   0.0215465   -0.4010037    0.0591569   -0.4674708   -0.2671096   -0.8426882
   0.0213900   -0.4001336    0.0591314   -0.3192239    0.1888724   -0.9286675
   0.0211061   -0.4001940    0.0592344   -0.4093972    0.0605440   -0.9103452
   0.0235209   -0.4016669    0.0588943    0.2033706   -0.2883284   -0.9356854
   0.0237157   -0.4017894    0.0589991    0.4545156   -0.3109979   -0.8346831
   0.0222630   -0.4008639    0.0587983   -0.2582948    0.0375779   -0.9653350
   0.0225670   -0.4012645    0.0587630   -0.1480088   -0.2037063   -0.9677795
   0.0220072   -0.4004631    0.0589204   -0.1981235    0.2025666   -0.9590171
   0.0228144   -0.4013402    0.0587788   -0.0342700   -0.3340158   -0.9419443
   0.0230708   -0.4011723    0.0587496    0.1048693   -0.0376597   -0.9937727
   0.0233005   -0.4012690    0.0587953    0.0914881   -0.1920477   -0.9771119
   0.0228281   -0.4012158    0.0587411    0.0202767   -0.1462777   -0.9890357
   0.0235298   -0.4015554    0.0588658    0.1813037   -0.1778173   -0.9672176
   0.0233069   -0.4035392    0.0602662    0.4426868   -0.7348042   -0.5138980
   0.0233859   -0.4037840    0.0605711    0.7566620   -0.4764275   -0.4477493
   0.0233127   -0.4035377    0.0602730    0.5949291   -0.6661843   -0.4497309
   0.0236414   -0.4030050    0.0600678    0.7816968   -0.4491254   -0.4327083
   0.0235975   -0.4026090    0.0596891    0.7309840   -0.5562930   -0.3952222
   0.0234833   -0.4034757    0.0603774    0.7090758   -0.5928152   -0.3818135
   0.0238589   -0.4019812    0.0591945    0.7095650   -0.3234952   -0.6259939
   0.0238115   -0.4022026    0.0592975    0.7288641   -0.5264467   -0.4377340
   0.0237070   -0.4024342    0.0594925    0.6952538   -0.6417002   -0.3237946
   0.0236009   -0.4025024    0.0594252    0.6528785   -0.6751390   -0.3434195
   0.0207858   -0.3998101    0.0594208   -0.3828578    0.1321829   -0.9143017
   0.0206512   -0.3993903    0.0595835   -0.3332360    0.2839717   -0.8990628
   0.0208569   -0.4002308    0.0593594   -0.2527011    0.0524762   -0.9661203
   0.0196507   -0.3991551    0.0601039   -0.6222819    0.1994809   -0.7569495
   0.0198755   -0.3991052    0.0599837   -0.4502972    0.3471184   -0.8226428
   0.0201844   -0.3990059    0.0598805   -0.3124000    0.4673109   -0.8270591
   0.0208090   -0.3990728    0.0596936   -0.1371185    0.5559228   -0.8198466
   0.0193173   -0.3990404    0.0604650   -0.7018474    0.2542668   -0.6654011
   0.0192004   -0.3988260    0.0606868   -0.7556884    0.3189449   -0.5720220
   0.0183464   -0.3994131    0.0620589   -0.8863996    0.2978588   -0.3543667
   0.0185401   -0.3990462    0.0619264   -0.8617339    0.3600807   -0.3574306
   0.0181547   -0.3996178    0.0624785   -0.9651539    0.1286202   -0.2278918
   0.0180867   -0.4000631    0.0629526   -0.9998196   -0.0129066    0.0139323
   0.0181092   -0.3996461    0.0627235   -0.9823024    0.1623493   -0.0934064
   0.0182624   -0.3992377    0.0625706   -0.9157859    0.3888242   -0.1007564
   0.0183733   -0.3990770    0.0623742   -0.8754312    0.4458663   -0.1866104
   0.0189545   -0.3985598    0.0613849   -0.8248068    0.5190764   -0.2241727
   0.0188389   -0.3986694    0.0615821   -0.8246139    0.5338415   -0.1871502
   0.0190735   -0.3984855    0.0611863   -0.7616017    0.5415878   -0.3558729
   0.0193245   -0.3984822    0.0607859   -0.6314598    0.5959444   -0.4960936
   0.0187235   -0.3987811    0.0617800   -0.8125457    0.5455452   -0.2053044
   0.0234517   -0.4038706    0.0608766    0.9223418   -0.3568293   -0.1481841
   0.0234002   -0.4040482    0.0611068    0.9530470   -0.2581982    0.1582247
   0.0232813   -0.4034870    0.0619017    0.8999755   -0.1673252    0.4025499
   0.0237365   -0.4023343    0.0614348    0.8951068   -0.2048425    0.3960093
   0.0231393   -0.4019188    0.0624862    0.8938997   -0.0010447    0.4482657
   0.0230177   -0.4028697    0.0626462    0.9311768   -0.0346563    0.3629170
   0.0230102   -0.4020038    0.0629516    0.9569145    0.0045757    0.2903339
   0.0228986   -0.4024713    0.0631249    0.9125035   -0.0265058    0.4082093
   0.0218488   -0.4036774    0.0646086    0.7171803   -0.1922165    0.6698546
   0.0219598   -0.4041141    0.0643661    0.6499132   -0.2501220    0.7176711
   0.0223382   -0.4031105    0.0641169    0.8123776   -0.1059042    0.5734343
   0.0225975   -0.4025788    0.0637616    0.8938146   -0.0045322    0.4484138
   0.0214277   -0.4038293    0.0648980    0.5297507   -0.3390523    0.7774367
   0.0197474   -0.4031083    0.0658851   -0.6226650   -0.6561188    0.4263759
   0.0195130   -0.4028453    0.0658260   -0.7251722   -0.4883471    0.4854301
   0.0190958   -0.4024475    0.0656416   -0.7933354   -0.4644278    0.3936062
   0.0192253   -0.4024403    0.0658342   -0.7034665   -0.4039397    0.5847799
   0.0201586   -0.4034810    0.0652758   -0.1815403   -0.8942593    0.4090762
   0.0200250   -0.4033941    0.0654782   -0.2459361   -0.9215140    0.3005450
   0.0198028   -0.4032344    0.0656341   -0.5784331   -0.7952643    0.1815761
   0.0198426   -0.4032373    0.0657495   -0.4438035   -0.8250493    0.3497600
   0.0189302   -0.4022032    0.0654752   -0.8927510   -0.3835384    0.2364191
   0.0188129   -0.4020085    0.0652377   -0.9220888   -0.3576028    0.1478937
   0.0187491   -0.4019967    0.0649371   -0.8973058   -0.4082980    0.1677352
   0.0185499   -0.4015637    0.0648012   -0.9484762   -0.2690696    0.1673155
   0.0184754   -0.4011145    0.0647441   -0.9562422   -0.1182040    0.2676354
   0.0183715   -0.4006634    0.0645741   -0.9120013   -0.0396550    0.4082660
   0.0183090   -0.4006611    0.0644067   -0.9559303   -0.0901907    0.2793975
   0.0181922   -0.4001910    0.0640017   -0.9727101    0.0553286    0.2253304
   0.0181202   -0.3996868    0.0632532   -0.9717372    0.2074608    0.1126359
   0.0181615   -0.3997057    0.0635903   -0.9692006    0.1873653    0.1598264
   0.0182169   -0.3997217    0.0639042   -0.9457923    0.1844767    0.2672925
   0.0204434   -0.4035439    0.0652302    0.1334846   -0.8383496    0.5285374
   0.0202440   -0.4035737    0.0651510   -0.2080022   -0.8105141    0.5475417
   0.0211552   -0.4025354    0.0656584    0.5273594   -0.3065573    0.7924107
   0.0208325   -0.4028187    0.0657215    0.4936937   -0.4606400    0.7376160
   0.0203381   -0.4034366    0.0653845    0.0996585   -0.8291309    0.5501001
   0.0203739   -0.4031930    0.0656983    0.3538835   -0.7161792    0.6015428
   0.0205364   -0.4029615    0.0658110    0.4446679   -0.5171845    0.7312938
   0.0217659   -0.4000233    0.0590862   -0.1634686    0.3007497   -0.9395891
   0.0216272   -0.3996449    0.0592606   -0.1491026    0.3874466   -0.9097547
   0.0208630   -0.3997927    0.0593968   -0.2921351    0.2237330   -0.9298390
   0.0237339   -0.4015251    0.0589372    0.4481096   -0.1427004   -0.8825160
   0.0239062   -0.4015029    0.0590609    0.6720983   -0.1182051   -0.7309661
   0.0224097   -0.4003875    0.0588882   -0.1008736    0.3481178   -0.9320078
   0.0225481   -0.4008072    0.0587375   -0.1016244    0.1658428   -0.9809020
   0.0221674   -0.4004327    0.0588972   -0.0622442    0.3477991   -0.9355007
   0.0227412   -0.4012301    0.0587445   -0.0411607   -0.1665383   -0.9851755
   0.0226733   -0.4007856    0.0587384   -0.0458319    0.1293601   -0.9905379
   0.0220455   -0.3995702    0.0592851   -0.0331541    0.4391152   -0.8978188
   0.0233022   -0.4011324    0.0587762    0.1624895    0.0319952   -0.9861914
   0.0232719   -0.4009544    0.0588028    0.1839091    0.1623346   -0.9694457
   0.0232311   -0.4006930    0.0588351    0.1918644    0.3021880   -0.9337400
   0.0227941   -0.4007640    0.0587398    0.0689704    0.1594847   -0.9847882
   0.0235235   -0.4010957    0.0588197    0.3164758    0.0523575   -0.9471546
   0.0235508   -0.4035286    0.0606766    0.8925269   -0.4059364   -0.1964978
   0.0235472   -0.4035407    0.0606840    0.9141194   -0.3742536   -0.1559487
   0.0237431   -0.4029359    0.0602972    0.8987964   -0.3826788   -0.2138268
   0.0237501   -0.4025099    0.0598332    0.7820025   -0.4064479   -0.4725168
   0.0237211   -0.4030129    0.0603419    0.9006404   -0.3986723   -0.1729370
   0.0236870   -0.4025143    0.0597485    0.7700897   -0.5037722   -0.3913764
   0.0236573   -0.4025048    0.0595809    0.7139412   -0.6719483   -0.1969098
   0.0239852   -0.4019737    0.0593927    0.8703851   -0.3735867   -0.3207221
   0.0240168   -0.4014950    0.0591979    0.7894824   -0.0716799   -0.6095732
   0.0240463   -0.4014923    0.0592360    0.8484285   -0.1305793   -0.5129504
   0.0238746   -0.4022580    0.0596044    0.7904645   -0.5736927   -0.2145754
   0.0237650   -0.4024364    0.0598002    0.7574842   -0.5808872   -0.2979729
   0.0210116   -0.3993191    0.0595198   -0.1877151    0.4384656   -0.8789260
   0.0195971   -0.3987170    0.0603798   -0.4574260    0.5030896   -0.7332546
   0.0199225   -0.3986605    0.0602548   -0.2828536    0.6177264   -0.7337629
   0.0201827   -0.3986123    0.0602345   -0.0489322    0.8026886   -0.5943876
   0.0203453   -0.3987587    0.0599935   -0.0949422    0.7498692   -0.6547382
   0.0205443   -0.3989714    0.0598199   -0.1453793    0.5748810   -0.8052184
   0.0211271   -0.3991701    0.0595986    0.0724043    0.7368519   -0.6721658
   0.0209850   -0.3989889    0.0598032    0.3205132    0.8678125   -0.3797010
   0.0207219   -0.3989378    0.0598157    0.0669007    0.7325090   -0.6774621
   0.0193674   -0.3987812    0.0605145   -0.6346812    0.3531623   -0.6873545
   0.0194566   -0.3985534    0.0605840   -0.5027084    0.6083829   -0.6141290
   0.0184376   -0.3990815    0.0621375   -0.8674940    0.3952574   -0.3020359
   0.0186066   -0.3988771    0.0619784   -0.7983983    0.5540618   -0.2357448
   0.0181011   -0.3996690    0.0629912   -0.9775973    0.2068885    0.0387383
   0.0181586   -0.3994735    0.0627659   -0.9288163    0.3705367    0.0016713
   0.0184210   -0.3989611    0.0626846   -0.7761524    0.6256463    0.0784484
   0.0183261   -0.3991593    0.0628606   -0.8430635    0.5227375    0.1264491
   0.0184887   -0.3989612    0.0621763   -0.8032725    0.5611691   -0.1996061
   0.0185350   -0.3988337    0.0624871   -0.6768734    0.7360962    0.0022148
   0.0189866   -0.3984888    0.0616826   -0.7756681    0.6288371   -0.0538788
   0.0190272   -0.3984614    0.0614347   -0.7673206    0.6230363   -0.1518055
   0.0188886   -0.3985793    0.0618923   -0.6231972    0.7814876    0.0300387
   0.0192364   -0.3982598    0.0612989   -0.4595215    0.8591438   -0.2251930
   0.0192644   -0.3983859    0.0610316   -0.5464756    0.7297814   -0.4108327
   0.0194933   -0.3983337    0.0608983   -0.3227734    0.8519742   -0.4122588
   0.0187713   -0.3986693    0.0620906   -0.5983690    0.8010255   -0.0176856
   0.0235964   -0.4034445    0.0609938    0.9549443   -0.2862974    0.0781995
   0.0239477   -0.4016801    0.0613348    0.8435326   -0.0475372    0.5349701
   0.0236960   -0.4031580    0.0608005    0.9486551   -0.3114945    0.0549963
   0.0238282   -0.4025962    0.0609210    0.9005918   -0.3394015    0.2715530
   0.0238938   -0.4021428    0.0612676    0.8694530   -0.2665214    0.4159540
   0.0238999   -0.4012322    0.0613408    0.8066175    0.2014008    0.5557030
   0.0229584   -0.4010563    0.0627199    0.9298670    0.0920519    0.3561936
   0.0233938   -0.4009104    0.0618903    0.8336223    0.2065735    0.5122512
   0.0229363   -0.4020127    0.0631816    0.8797566   -0.0257676    0.4747256
   0.0228455   -0.4011157    0.0631967    0.8971565    0.0797435    0.4344551
   0.0226755   -0.4024649    0.0635420    0.8952739    0.0561984    0.4419575
   0.0227884   -0.4023256    0.0633449    0.8271707   -0.0254690    0.5613733
   0.0217759   -0.4032736    0.0648704    0.7090495   -0.2421262    0.6622867
   0.0222270   -0.4026928    0.0643573    0.8635706   -0.1847576    0.4691594
   0.0225858   -0.4016701    0.0638240    0.9016853    0.1022281    0.4201344
   0.0223105   -0.4019624    0.0644620    0.9139501   -0.0756037    0.3987221
   0.0217823   -0.4028269    0.0650099    0.6033766   -0.2245678    0.7651836
   0.0213617   -0.4024856    0.0655095    0.6325927   -0.1743328    0.7546089
   0.0215505   -0.4024377    0.0653501    0.6611977   -0.1834655    0.7274325
   0.0199309   -0.4031051    0.0659931   -0.0840577   -0.6646431    0.7424176
   0.0196420   -0.4028366    0.0660203   -0.5505388   -0.3833096    0.7416068
   0.0195033   -0.4024096    0.0660691   -0.5984273   -0.2604361    0.7576660
   0.0189890   -0.4020199    0.0657589   -0.8211879   -0.1521488    0.5500011
   0.0191715   -0.4022021    0.0658907   -0.6203193   -0.2487068    0.7438742
   0.0190578   -0.4020139    0.0658381   -0.7525148   -0.1484274    0.6416313
   0.0202049   -0.4033518    0.0655871    0.1399702   -0.8787401    0.4563159
   0.0200717   -0.4032706    0.0657891    0.1021645   -0.8264119    0.5537200
   0.0188464   -0.4020195    0.0654399   -0.9302140   -0.2047639    0.3045876
   0.0187453   -0.4015675    0.0652913   -0.9277470   -0.0709496    0.3664037
   0.0186363   -0.4015702    0.0650644   -0.9076476   -0.1501189    0.3919697
   0.0185031   -0.4011162    0.0648207   -0.9047241   -0.0268529    0.4251508
   0.0184874   -0.4006387    0.0647873   -0.8511854    0.1038984    0.5144789
   0.0183679   -0.4002023    0.0645230   -0.8808837    0.1140331    0.4593913
   0.0185025   -0.4001929    0.0647081   -0.7562901    0.2384061    0.6092518
   0.0182665   -0.4002014    0.0642843   -0.9346872    0.1101028    0.3379899
   0.0182987   -0.3998457    0.0641892   -0.8414898    0.3728979    0.3909502
   0.0183211   -0.3997213    0.0641386   -0.8150774    0.3765792    0.4402691
   0.0181674   -0.3996761    0.0635773   -0.9259798    0.3426828    0.1585240
   0.0182652   -0.3993736    0.0633840   -0.8245356    0.5421700    0.1618419
   0.0182090   -0.3993891    0.0630757   -0.8712330    0.4784292    0.1098112
   0.0182254   -0.3996782    0.0638848   -0.8766870    0.3890507    0.2829477
   0.0206728   -0.4026434    0.0659149    0.4692441   -0.2969549    0.8316416
   0.0211909   -0.4020763    0.0657143    0.5934057   -0.0201890    0.8046503
   0.0209645   -0.4022513    0.0658424    0.5289143   -0.1675852    0.8319644
   0.0202400   -0.4031021    0.0659006    0.3666779   -0.5848194    0.7235562
   0.0201412   -0.4031890    0.0658360    0.2914277   -0.7070086    0.6443669
   0.0204145   -0.4026996    0.0660334    0.4304721   -0.3541802    0.8302109
   0.0212799   -0.3994655    0.0593916   -0.1364508    0.4367777   -0.8891605
   0.0215992   -0.3995746    0.0592967   -0.0427914    0.5690701   -0.8211749
   0.0217649   -0.3993786    0.0594087   -0.0147940    0.7016200   -0.7123977
   0.0237134   -0.4010685    0.0589142    0.5357737    0.1461138   -0.8316233
   0.0238788   -0.4010495    0.0590485    0.7231499    0.1435526   -0.6756085
   0.0226613   -0.4003434    0.0588998    0.0368785    0.4284126   -0.9028304
   0.0223156   -0.3995281    0.0593503    0.1500149    0.5643724   -0.8117754
   0.0221047   -0.3995617    0.0592900    0.1106519    0.4901848   -0.8645664
   0.0227469   -0.4006046    0.0587952    0.0607748    0.3732193   -0.9257504
   0.0220871   -0.3995193    0.0593130    0.0796201    0.6518778   -0.7541326
   0.0234371   -0.4006617    0.0589032    0.3339447    0.3030707   -0.8925408
   0.0234259   -0.4006286    0.0589178    0.3593888    0.5163557   -0.7773136
   0.0230821   -0.4002519    0.0590190    0.2381182    0.5105227   -0.8262363
   0.0239346   -0.4022817    0.0599115    0.8389681   -0.4703590   -0.2736696
   0.0238778   -0.4025101    0.0601348    0.9035896   -0.3952567   -0.1652207
   0.0237963   -0.4028811    0.0606067    0.9330011   -0.3554070    0.0565230
   0.0240517   -0.4022940    0.0605270    0.9306062   -0.3658990    0.0094842
   0.0241888   -0.4016809    0.0598325    0.9552460   -0.2651126   -0.1312268
   0.0241537   -0.4020349    0.0603328    0.9348365   -0.3439262   -0.0882919
   0.0241517   -0.4014932    0.0594682    0.9327288   -0.0783806   -0.3519565
   0.0241308   -0.4016768    0.0595248    0.9371462   -0.2402900   -0.2530174
   0.0240132   -0.4010419    0.0592330    0.8474860    0.1534018   -0.5081686
   0.0211931   -0.3992852    0.0595083   -0.0154525    0.6404986   -0.7678039
   0.0198986   -0.3986314    0.0602891   -0.2447182    0.7029780   -0.6677836
   0.0197593   -0.3984835    0.0604925   -0.2212150    0.8000309   -0.5576867
   0.0196251   -0.3983888    0.0606951   -0.1935947    0.8666631   -0.4598001
   0.0200695   -0.3984905    0.0604002    0.0005196    0.8638909   -0.5036787
   0.0203652   -0.3985886    0.0603406    0.2923957    0.9178580   -0.2684054
   0.0202525   -0.3984852    0.0605079    0.4053096    0.8974816   -0.1739280
   0.0206629   -0.3988482    0.0598989    0.0993647    0.7536485   -0.6497235
   0.0205234   -0.3986982    0.0601023    0.2306655    0.9063898   -0.3539082
   0.0213062   -0.3991177    0.0597078    0.2342974    0.8872981   -0.3972490
   0.0211722   -0.3990269    0.0599102    0.3188085    0.9282457   -0.1916276
   0.0208469   -0.3988528    0.0600067    0.4607284    0.8564897   -0.2327117
   0.0209256   -0.3989197    0.0600475    0.5984525    0.8007882    0.0243476
   0.0210423   -0.3989812    0.0601111    0.4066191    0.9133092    0.0229623
   0.0186526   -0.3987456    0.0622891   -0.6067933    0.7938733   -0.0395860
   0.0185942   -0.3988477    0.0627948   -0.4394694    0.8564102    0.2709762
   0.0184815   -0.3989889    0.0629922   -0.6140801    0.7287586    0.3030125
   0.0183905   -0.3991725    0.0631595   -0.7146906    0.6305801    0.3026320
   0.0187106   -0.3987458    0.0625969   -0.3067639    0.9268933    0.2162514
   0.0189823   -0.3984928    0.0617324   -0.6550879    0.7476559    0.1089523
   0.0190035   -0.3984635    0.0616947   -0.6879761    0.7145758    0.1267686
   0.0191173   -0.3983303    0.0614975   -0.6552221    0.7550515    0.0241089
   0.0190825   -0.3984944    0.0619731   -0.3167007    0.8881343    0.3330436
   0.0189482   -0.3985970    0.0621997   -0.2428952    0.9397374    0.2406150
   0.0195027   -0.3983313    0.0609017   -0.1079504    0.9438767   -0.3121593
   0.0195417   -0.3982174    0.0612070    0.1807236    0.9828179   -0.0375228
   0.0192946   -0.3982620    0.0616068   -0.0352119    0.9548687    0.2949337
   0.0188296   -0.3986734    0.0623984   -0.2446425    0.9479604    0.2037673
   0.0240650   -0.4016421    0.0611326    0.9077583   -0.0533041    0.4160933
   0.0240178   -0.4011943    0.0611390    0.8643901    0.1889657    0.4659632
   0.0240852   -0.4020248    0.0608410    0.9207924   -0.3030170    0.2456053
   0.0239876   -0.4021075    0.0610515    0.9031608   -0.2762341    0.3286264
   0.0238689   -0.4007595    0.0610848    0.8349955    0.3814096    0.3966222
   0.0232397   -0.4000215    0.0618681    0.9100537    0.1826300    0.3720867
   0.0230988   -0.3996089    0.0620904    0.9186013    0.2470423    0.3084505
   0.0237066   -0.4006336    0.0612731    0.8626865    0.3620185    0.3531496
   0.0235035   -0.4003970    0.0614461    0.8499131    0.2432476    0.4674167
   0.0225109   -0.3998176    0.0633738    0.8578389    0.1819015    0.4806499
   0.0222789   -0.3998923    0.0637798    0.8233522    0.1841629    0.5368195
   0.0220975   -0.4004156    0.0641814    0.8135867    0.1810850    0.5525259
   0.0218583   -0.4028090    0.0649538    0.7413004   -0.2255195    0.6321508
   0.0220872   -0.4023012    0.0648530    0.7671180   -0.1540346    0.6227386
   0.0222095   -0.4022335    0.0646562    0.8891267   -0.1065843    0.4450769
   0.0221439   -0.4015175    0.0646722    0.8071057    0.2550572    0.5324717
   0.0222127   -0.4018079    0.0646905    0.8781801    0.0737141    0.4726160
   0.0213802   -0.4020403    0.0655543    0.6605729   -0.0480853    0.7492204
   0.0213762   -0.4020297    0.0655588    0.6812956   -0.0049333    0.7319917
   0.0217605   -0.4019335    0.0652376    0.7105445    0.0078798    0.7036082
   0.0215846   -0.4019802    0.0654046    0.6316908    0.0086472    0.7751722
   0.0200936   -0.4028774    0.0661058    0.2220817   -0.4319136    0.8741455
   0.0198210   -0.4028146    0.0661321   -0.2084400   -0.3615349    0.9087603
   0.0195599   -0.4024314    0.0661010   -0.4692347   -0.1874743    0.8629439
   0.0197475   -0.4023746    0.0661955   -0.2948283   -0.1457309    0.9443721
   0.0195041   -0.4019557    0.0661317   -0.4401161   -0.0668094    0.8954520
   0.0188519   -0.4015678    0.0655211   -0.8705285    0.0698671    0.4871332
   0.0191235   -0.4015475    0.0658872   -0.6893138    0.1642014    0.7056092
   0.0191313   -0.4017596    0.0659007   -0.6514108    0.0505923    0.7570366
   0.0191344   -0.4020067    0.0659256   -0.5982923   -0.0583370    0.7991515
   0.0187405   -0.4011071    0.0652425   -0.8168223    0.1200493    0.5642601
   0.0188617   -0.4014558    0.0654920   -0.8303639    0.1607448    0.5335324
   0.0186193   -0.4006509    0.0649783   -0.7935702    0.1289522    0.5946576
   0.0186637   -0.4001759    0.0648490   -0.5804084    0.4159441    0.7000832
   0.0186416   -0.4003167    0.0649020   -0.6776293    0.3441202    0.6499230
   0.0183797   -0.4000939    0.0644918   -0.7927615    0.3313685    0.5115898
   0.0185507   -0.3999585    0.0646021   -0.5063232    0.5842701    0.6342439
   0.0184818   -0.3997047    0.0642807   -0.2156287    0.7323426    0.6458936
   0.0184711   -0.3997204    0.0642997   -0.3625277    0.7518757    0.5506875
   0.0183936   -0.3995078    0.0639968   -0.4805877    0.7109477    0.5134090
   0.0183241   -0.3993836    0.0636915   -0.6935149    0.6552061    0.2995699
   0.0183751   -0.3991990    0.0631876   -0.6694653    0.7090013    0.2216606
   0.0184369   -0.3992425    0.0634945   -0.3977787    0.8584120    0.3238840
   0.0204856   -0.4022348    0.0661107    0.3968074   -0.1345638    0.9079849
   0.0205653   -0.4022172    0.0660737    0.4271642   -0.0726453    0.9012510
   0.0207455   -0.4021788    0.0659934    0.4992798   -0.0666595    0.8638728
   0.0209132   -0.4016801    0.0658530    0.5645542    0.1777554    0.8060283
   0.0213773   -0.4020107    0.0655549    0.6368010    0.1133159    0.7626558
   0.0203654   -0.4027102    0.0660522    0.3696731   -0.2944803    0.8812622
   0.0214475   -0.3992891    0.0595035    0.0705963    0.6697120   -0.7392578
   0.0216266   -0.3992407    0.0596122    0.1578561    0.9092917   -0.3850585
   0.0219424   -0.3993104    0.0595177    0.0835791    0.9092435   -0.4077877
   0.0218108   -0.3992452    0.0597200    0.0923222    0.9766238   -0.1941201
   0.0237826   -0.4006185    0.0591485    0.6680917    0.4036892   -0.6250508
   0.0225936   -0.3996664    0.0593247    0.2801885    0.6709397   -0.6865379
   0.0225054   -0.3995010    0.0594449    0.3624298    0.6770968   -0.6404565
   0.0222616   -0.3994195    0.0594228    0.1567238    0.7511830   -0.6412189
   0.0224425   -0.3993887    0.0595314    0.3019690    0.8177026   -0.4900788
   0.0221235   -0.3992854    0.0596260    0.0915195    0.9488011   -0.3023253
   0.0236226   -0.4002057    0.0593530    0.5177809    0.5918986   -0.6177046
   0.0232909   -0.3998929    0.0594425    0.4833755    0.6735518   -0.5591744
   0.0241890   -0.4017852    0.0606464    0.9635783   -0.2194839    0.1527863
   0.0242534   -0.4015510    0.0604284    0.9926564   -0.0873707    0.0836641
   0.0241711   -0.4014965    0.0595623    0.9831115   -0.0510129   -0.1757541
   0.0242560   -0.4015288    0.0601574    0.9935520   -0.0792825   -0.0810469
   0.0241206   -0.4010400    0.0594626    0.9310874    0.1930980   -0.3094987
   0.0214161   -0.3992493    0.0595482    0.1251215    0.8325547   -0.5396269
   0.0199352   -0.3983975    0.0606021    0.0162695    0.9405376   -0.3392997
   0.0198048   -0.3983460    0.0608037    0.0970483    0.9718430   -0.2147158
   0.0196946   -0.3983029    0.0609740    0.1314892    0.9693818   -0.2073873
   0.0201204   -0.3984140    0.0607097    0.3418833    0.9382426   -0.0530713
   0.0205795   -0.3986770    0.0604110    0.4774527    0.8786336   -0.0064748
   0.0204032   -0.3986003    0.0605875    0.5382619    0.8394523    0.0747931
   0.0203189   -0.3985778    0.0608133    0.5685077    0.7859119    0.2431902
   0.0214937   -0.3991596    0.0598142    0.3311871    0.9397114   -0.0851911
   0.0213646   -0.3991238    0.0600154    0.4180013    0.9062159    0.0636206
   0.0207778   -0.3988369    0.0605152    0.6247110    0.7623947    0.1687911
   0.0208896   -0.3989687    0.0605706    0.5206600    0.8312064    0.1949590
   0.0187773   -0.3988423    0.0629026    0.0231593    0.8910458    0.4533222
   0.0186625   -0.3989601    0.0631006   -0.0340360    0.8491822    0.5270020
   0.0185499   -0.3991014    0.0632976   -0.3008108    0.8205553    0.4860059
   0.0184443   -0.3991693    0.0632304   -0.5925224    0.7366726    0.3259304
   0.0188961   -0.3987661    0.0627043    0.1722177    0.8901731    0.4218210
   0.0191789   -0.3983719    0.0618046   -0.3023925    0.8707980    0.3876462
   0.0193276   -0.3984438    0.0618858    0.1874007    0.8337331    0.5193940
   0.0191351   -0.3986331    0.0623068    0.2231688    0.8576800    0.4632285
   0.0190157   -0.3986996    0.0625056    0.1488522    0.9036478    0.4015765
   0.0196116   -0.3983457    0.0615125    0.4485649    0.8156761    0.3653245
   0.0197069   -0.3983053    0.0610232    0.3873060    0.9213954    0.0320094
   0.0241566   -0.4016081    0.0609148    0.9523634   -0.0873086    0.2922004
   0.0241037   -0.4011610    0.0609178    0.9317238    0.2134209    0.2938405
   0.0241202   -0.4010321    0.0606634    0.8980219    0.3662733    0.2437222
   0.0238844   -0.4004652    0.0605688    0.8769033    0.4392256    0.1952473
   0.0236125   -0.4002382    0.0609743    0.8231105    0.5290630    0.2063527
   0.0233891   -0.3999579    0.0614125    0.9072009    0.3019404    0.2929480
   0.0232145   -0.3995481    0.0616154    0.9204515    0.3248635    0.2173309
   0.0231614   -0.3994286    0.0615929    0.8145863    0.5771129    0.0582220
   0.0229499   -0.3991629    0.0618969    0.7549661    0.6557544    0.0035088
   0.0229373   -0.3991754    0.0620289    0.8250170    0.5227057    0.2147690
   0.0228061   -0.3992402    0.0625364    0.8076447    0.5058353    0.3030525
   0.0227383   -0.3992680    0.0627268    0.8460807    0.3260367    0.4217197
   0.0232411   -0.3995606    0.0610822    0.8427936    0.5382361    0.0008681
   0.0234158   -0.3999402    0.0612506    0.9127347    0.4000960    0.0826961
   0.0222913   -0.3994153    0.0635494    0.7692393    0.3764423    0.5162966
   0.0225290   -0.3993399    0.0631464    0.7808148    0.3735386    0.5007966
   0.0220254   -0.3999702    0.0641730    0.7726624    0.2060728    0.6004389
   0.0220496   -0.3994918    0.0639495    0.7114859    0.3883468    0.5856404
   0.0218832   -0.4000124    0.0643602    0.6806227    0.2780713    0.6778120
   0.0216829   -0.4005373    0.0647504    0.7391356    0.2783773    0.6133389
   0.0220842   -0.4018475    0.0648860    0.7991749    0.1174295    0.5895166
   0.0218529   -0.4014448    0.0650551    0.7193144    0.2545848    0.6463539
   0.0216920   -0.4014888    0.0652311    0.6103438    0.2397006    0.7549994
   0.0201309   -0.4027582    0.0661368    0.3249621   -0.2541654    0.9109334
   0.0200547   -0.4027737    0.0661552    0.0843573   -0.2471251    0.9653046
   0.0199679   -0.4023383    0.0662404   -0.0074428   -0.0668133    0.9977377
   0.0197094   -0.4019247    0.0662008   -0.1799776    0.0686664    0.9812711
   0.0194952   -0.4014973    0.0660891   -0.3537393    0.1757369    0.9186866
   0.0193385   -0.4010510    0.0658839   -0.4527755    0.3382324    0.8249807
   0.0190208   -0.4010861    0.0655932   -0.7317379    0.2687967    0.6263449
   0.0191843   -0.4009674    0.0657185   -0.6067221    0.3932176    0.6908460
   0.0187695   -0.4006375    0.0651375   -0.6650872    0.2562846    0.7014109
   0.0189202   -0.4007207    0.0653085   -0.6606790    0.2874803    0.6934395
   0.0188621   -0.4001465    0.0649297   -0.1254892    0.6287014    0.7674549
   0.0187344   -0.3999573    0.0647100   -0.2153735    0.7469534    0.6290269
   0.0188196   -0.4002564    0.0650110   -0.4486337    0.5442155    0.7089127
   0.0186590   -0.3997701    0.0644060   -0.0315971    0.8739612    0.4849674
   0.0187802   -0.3997175    0.0642075    0.2761024    0.8549827    0.4390582
   0.0186897   -0.3996577    0.0641586    0.3714647    0.7553922    0.5398116
   0.0185815   -0.3995555    0.0641030    0.1478924    0.7929052    0.5911254
   0.0185056   -0.3993569    0.0637999   -0.0823829    0.8737402    0.4793654
   0.0187407   -0.3991806    0.0634034    0.1742983    0.8557191    0.4872011
   0.0186222   -0.3992590    0.0636020    0.1672956    0.8728385    0.4584377
   0.0202456   -0.4022850    0.0661908    0.2850124   -0.0799835    0.9551809
   0.0204432   -0.4017860    0.0661201    0.3239983    0.1246357    0.9378118
   0.0207002   -0.4017296    0.0660012    0.4577168    0.1501688    0.8763245
   0.0207671   -0.4012448    0.0658032    0.5024505    0.4111379    0.7605979
   0.0210082   -0.4013567    0.0656622    0.5446343    0.3742751    0.7505275
   0.0201860   -0.4022973    0.0662039    0.2435781   -0.1220927    0.9621658
   0.0216597   -0.3992336    0.0599062    0.3160518    0.9473145    0.0520236
   0.0216848   -0.3992408    0.0599202    0.1424628    0.9890777    0.0378101
   0.0219961   -0.3992635    0.0598272    0.0973154    0.9949821   -0.0232474
   0.0240208   -0.4006089    0.0595683    0.8910049    0.3636001   -0.2718550
   0.0238249   -0.4003410    0.0594474    0.7440219    0.5138484   -0.4270729
   0.0231421   -0.3996407    0.0596484    0.4201951    0.7923836   -0.4422265
   0.0230037   -0.3995007    0.0598517    0.4391747    0.8475357   -0.2980080
   0.0223076   -0.3992882    0.0597341    0.1639992    0.9772120   -0.1347629
   0.0224945   -0.3993260    0.0598407    0.2394628    0.9679472   -0.0757344
   0.0221824   -0.3992916    0.0599343    0.1155216    0.9899732    0.0812888
   0.0236683   -0.4000042    0.0596550    0.6323072    0.7126341   -0.3038755
   0.0233343   -0.3997318    0.0597542    0.6431407    0.7245075   -0.2479092
   0.0234687   -0.3998253    0.0599516    0.6527102    0.7449588   -0.1378615
   0.0242423   -0.4010767    0.0601838    0.9799973    0.1846859    0.0741376
   0.0242321   -0.4010713    0.0600886    0.9775626    0.1645873   -0.1314625
   0.0199921   -0.3983842    0.0609108    0.3968843    0.9090640    0.1268288
   0.0205936   -0.3990961    0.0614829    0.4876025    0.8300408    0.2706954
   0.0196912   -0.3985818    0.0618147    0.5083629    0.7440588    0.4335246
   0.0201021   -0.3987285    0.0614970    0.5574662    0.7407126    0.3749349
   0.0215593   -0.3992445    0.0601204    0.2616538    0.9532391    0.1512367
