NORM_ASCII
2838 5672
3 485 577 576 
3 579 578 486 
3 488 579 486 
3 580 488 487 
3 489 581 487 
3 581 582 487 
3 487 582 580 
3 583 488 582 
3 583 579 488 
3 488 580 582 
3 584 489 490 
3 585 489 584 
3 581 489 585 
3 490 491 584 
3 584 491 586 
3 586 491 492 
3 587 492 493 
3 492 587 586 
3 493 588 587 
3 493 494 588 
3 494 495 588 
3 588 495 589 
3 590 589 495 
3 496 590 495 
3 496 591 592 
3 590 496 592 
3 496 593 591 
3 497 593 496 
3 497 594 593 
3 594 497 499 
3 595 499 498 
3 500 595 498 
3 594 499 595 
3 595 500 596 
3 500 501 596 
3 501 545 597 
3 597 596 501 
3 502 571 598 
3 598 503 502 
3 504 503 599 
3 599 503 600 
3 503 598 600 
3 504 601 505 
3 599 601 504 
3 507 506 505 
3 505 602 507 
3 603 602 505 
3 601 604 505 
3 505 604 603 
3 602 508 507 
3 605 513 508 
3 606 508 602 
3 606 605 508 
3 607 608 509 
3 517 511 509 
3 509 608 609 
3 509 510 607 
3 517 509 609 
3 610 607 510 
3 510 512 611 
3 611 610 510 
3 612 613 512 
3 513 614 512 
3 612 512 614 
3 512 613 611 
3 605 614 513 
3 514 615 518 
3 514 516 616 
3 616 615 514 
3 515 517 617 
3 516 515 617 
3 617 616 516 
3 609 618 517 
3 617 517 618 
3 521 523 518 
3 518 615 521 
3 619 520 522 
3 524 520 525 
3 525 520 619 
3 521 620 522 
3 521 615 620 
3 522 620 619 
3 621 526 525 
3 525 619 621 
3 526 621 622 
3 526 622 623 
3 624 527 526 
3 526 623 624 
3 529 528 527 
3 527 624 625 
3 527 626 529 
3 527 625 626 
3 529 627 530 
3 529 626 627 
3 530 627 531 
3 531 627 628 
3 628 532 531 
3 532 629 533 
3 629 532 630 
3 630 532 628 
3 533 629 631 
3 631 632 533 
3 632 538 533 
3 538 535 533 
3 536 534 535 
3 538 536 535 
3 537 536 538 
3 633 538 632 
3 633 634 538 
3 634 635 538 
3 539 538 635 
3 636 539 635 
3 539 636 540 
3 543 540 637 
3 638 637 540 
3 639 540 636 
3 638 540 639 
3 640 541 543 
3 541 641 542 
3 641 541 640 
3 542 641 553 
3 640 543 637 
3 544 548 642 
3 544 642 545 
3 643 545 644 
3 545 643 597 
3 644 545 642 
3 645 547 546 
3 546 549 645 
3 646 548 547 
3 547 647 646 
3 547 645 647 
3 548 646 648 
3 648 642 548 
3 649 549 550 
3 549 650 645 
3 650 549 649 
3 550 551 562 
3 562 649 550 
3 552 651 555 
3 641 552 553 
3 552 652 651 
3 641 652 552 
3 653 561 554 
3 653 554 558 
3 556 555 654 
3 655 555 651 
3 555 655 654 
3 556 654 656 
3 556 656 557 
3 657 557 656 
3 658 557 657 
3 557 658 559 
3 653 558 559 
3 559 659 653 
3 559 660 661 
3 559 658 660 
3 661 662 559 
3 659 559 662 
3 560 663 569 
3 561 664 560 
3 664 663 560 
3 561 665 664 
3 653 665 561 
3 649 562 666 
3 666 562 563 
3 563 667 666 
3 564 667 563 
3 564 668 667 
3 565 669 564 
3 669 668 564 
3 670 565 566 
3 670 669 565 
3 670 566 567 
3 567 671 672 
3 672 670 567 
3 567 673 671 
3 567 570 673 
3 674 568 569 
3 674 570 568 
3 675 676 569 
3 674 569 676 
3 677 569 663 
3 569 677 675 
3 678 673 570 
3 570 674 678 
3 598 571 572 
3 572 679 598 
3 680 681 572 
3 681 679 572 
3 680 572 574 
3 573 575 574 
3 574 575 682 
3 683 680 574 
3 574 682 683 
3 575 576 682 
3 576 684 682 
3 576 685 684 
3 576 577 685 
3 685 577 579 
3 579 577 578 
3 686 685 579 
3 579 583 686 
3 687 582 581 
3 688 687 581 
3 581 585 689 
3 689 688 581 
3 687 583 582 
3 686 583 687 
3 690 585 584 
3 584 586 690 
3 585 690 689 
3 690 586 587 
3 592 690 587 
3 587 588 589 
3 587 589 592 
3 592 589 590 
3 592 591 691 
3 591 692 691 
3 692 591 593 
3 592 693 690 
3 691 693 592 
3 694 692 593 
3 694 593 594 
3 594 595 597 
3 594 597 694 
3 595 596 597 
3 695 696 597 
3 697 698 597 
3 597 643 695 
3 597 696 697 
3 597 698 694 
3 600 598 679 
3 604 601 599 
3 699 700 599 
3 599 701 603 
3 699 599 600 
3 700 701 599 
3 603 604 599 
3 702 699 600 
3 600 679 702 
3 602 603 701 
3 602 703 606 
3 703 602 701 
3 704 605 606 
3 704 614 605 
3 705 704 606 
3 606 706 705 
3 606 703 707 
3 606 707 708 
3 606 708 706 
3 607 709 608 
3 610 710 607 
3 710 709 607 
3 709 711 608 
3 609 608 711 
3 609 711 618 
3 712 710 610 
3 613 713 610 
3 611 613 610 
3 713 714 610 
3 714 712 610 
3 715 613 612 
3 716 612 704 
3 614 704 612 
3 717 715 612 
3 612 716 717 
3 718 713 613 
3 718 613 715 
3 620 615 719 
3 615 616 719 
3 719 616 720 
3 616 617 720 
3 617 721 720 
3 618 721 617 
3 618 711 721 
3 722 619 620 
3 723 724 619 
3 619 722 723 
3 621 619 724 
3 620 725 722 
3 620 719 725 
3 724 726 621 
3 726 622 621 
3 727 728 622 
3 622 726 729 
3 727 622 730 
3 729 730 622 
3 622 728 623 
3 731 623 728 
3 624 623 731 
3 732 625 624 
3 732 624 731 
3 732 733 625 
3 733 626 625 
3 627 626 734 
3 733 734 626 
3 734 628 627 
3 628 734 735 
3 628 735 630 
3 736 631 629 
3 629 630 736 
3 737 738 630 
3 630 735 737 
3 738 736 630 
3 631 736 632 
3 632 736 738 
3 738 739 632 
3 632 740 633 
3 739 740 632 
3 740 741 633 
3 633 742 634 
3 742 633 741 
3 635 634 742 
3 635 743 636 
3 744 745 635 
3 743 635 745 
3 635 742 744 
3 636 743 746 
3 747 636 746 
3 639 636 747 
3 640 637 748 
3 748 637 749 
3 637 638 749 
3 638 750 751 
3 638 751 752 
3 752 749 638 
3 638 639 750 
3 747 750 639 
3 748 753 640 
3 640 652 641 
3 640 753 652 
3 642 754 644 
3 754 642 755 
3 648 756 642 
3 755 642 756 
3 643 644 757 
3 758 695 643 
3 759 758 643 
3 760 759 643 
3 757 760 643 
3 761 757 644 
3 754 761 644 
3 650 647 645 
3 646 762 648 
3 762 646 647 
3 647 763 762 
3 764 763 647 
3 647 650 765 
3 765 764 647 
3 762 766 648 
3 766 756 648 
3 650 649 767 
3 666 767 649 
3 765 650 767 
3 651 768 655 
3 651 652 769 
3 768 651 769 
3 753 769 652 
3 653 659 665 
3 657 654 770 
3 768 770 654 
3 654 655 768 
3 656 654 657 
3 770 771 657 
3 657 771 772 
3 658 657 772 
3 773 658 774 
3 775 774 658 
3 775 658 772 
3 660 658 773 
3 663 664 659 
3 663 659 776 
3 664 665 659 
3 662 776 659 
3 661 660 773 
3 661 773 662 
3 773 777 662 
3 778 776 662 
3 662 777 778 
3 663 776 677 
3 666 668 767 
3 666 667 668 
3 669 779 668 
3 767 668 779 
3 780 779 669 
3 669 781 780 
3 670 782 669 
3 781 669 782 
3 782 670 672 
3 783 672 671 
3 671 784 783 
3 671 673 785 
3 785 784 671 
3 782 672 786 
3 783 786 672 
3 678 785 673 
3 676 787 674 
3 787 678 674 
3 676 675 788 
3 675 789 788 
3 675 677 789 
3 788 787 676 
3 776 790 677 
3 677 791 789 
3 791 677 790 
3 792 678 793 
3 792 785 678 
3 794 678 787 
3 793 678 794 
3 679 681 702 
3 795 681 680 
3 680 683 796 
3 795 680 796 
3 797 702 681 
3 797 681 795 
3 683 682 798 
3 798 682 799 
3 799 682 684 
3 796 683 800 
3 800 683 801 
3 798 801 683 
3 684 802 799 
3 802 684 685 
3 686 802 685 
3 799 802 686 
3 803 799 686 
3 686 687 804 
3 803 686 804 
3 688 804 687 
3 805 804 688 
3 805 688 689 
3 805 689 806 
3 689 690 693 
3 689 693 806 
3 693 691 692 
3 692 694 693 
3 807 806 693 
3 808 807 693 
3 808 693 694 
3 808 694 698 
3 696 695 809 
3 695 810 811 
3 695 811 809 
3 812 810 695 
3 758 812 695 
3 696 809 808 
3 808 697 696 
3 808 698 697 
3 700 699 813 
3 814 699 702 
3 813 699 814 
3 813 815 700 
3 703 701 700 
3 700 815 703 
3 814 702 816 
3 702 797 816 
3 707 703 815 
3 817 716 704 
3 705 818 704 
3 817 704 818 
3 705 706 818 
3 817 706 819 
3 817 818 706 
3 819 706 708 
3 707 820 821 
3 822 707 815 
3 821 708 707 
3 820 707 822 
3 708 823 819 
3 824 823 708 
3 708 821 825 
3 825 824 708 
3 826 711 709 
3 826 709 827 
3 827 709 710 
3 712 827 710 
3 711 826 828 
3 829 711 828 
3 829 721 711 
3 827 712 830 
3 712 714 830 
3 831 714 713 
3 713 832 831 
3 713 718 832 
3 831 833 714 
3 833 830 714 
3 834 718 715 
3 715 717 834 
3 835 716 817 
3 835 717 716 
3 836 717 835 
3 837 834 717 
3 717 836 837 
3 832 718 837 
3 837 718 834 
3 720 725 719 
3 838 725 720 
3 720 829 838 
3 720 721 829 
3 838 839 722 
3 725 838 722 
3 722 839 723 
3 724 723 840 
3 841 723 842 
3 840 723 841 
3 842 723 839 
3 724 840 726 
3 726 840 843 
3 726 843 729 
3 728 727 731 
3 844 727 845 
3 846 727 847 
3 727 730 847 
3 731 727 844 
3 727 846 845 
3 729 843 730 
3 843 848 730 
3 848 847 730 
3 844 849 731 
3 731 849 732 
3 732 850 851 
3 850 732 849 
3 852 732 853 
3 733 732 852 
3 853 732 851 
3 854 733 852 
3 854 734 733 
3 734 854 735 
3 855 856 735 
3 735 854 857 
3 735 857 855 
3 735 856 737 
3 858 738 737 
3 856 859 737 
3 737 859 860 
3 858 737 860 
3 858 739 738 
3 861 739 858 
3 861 862 739 
3 739 862 740 
3 740 862 741 
3 863 741 862 
3 742 741 864 
3 741 863 865 
3 864 741 865 
3 742 864 866 
3 866 744 742 
3 746 743 867 
3 743 745 867 
3 744 868 745 
3 744 866 869 
3 744 869 868 
3 867 745 868 
3 747 746 870 
3 746 867 871 
3 871 870 746 
3 750 747 870 
3 768 753 748 
3 768 748 770 
3 770 748 749 
3 872 749 752 
3 749 873 770 
3 873 749 872 
3 751 750 870 
3 874 752 751 
3 751 870 874 
3 872 752 874 
3 769 753 768 
3 875 754 755 
3 761 754 876 
3 754 875 877 
3 876 754 877 
3 755 756 875 
3 756 878 875 
3 756 879 878 
3 766 880 756 
3 756 880 879 
3 757 761 760 
3 812 758 881 
3 881 758 759 
3 882 881 759 
3 883 882 759 
3 759 760 883 
3 760 761 884 
3 760 884 885 
3 760 885 883 
3 761 886 884 
3 761 876 886 
3 766 762 763 
3 763 880 766 
3 763 764 880 
3 880 764 879 
3 879 764 765 
3 879 765 887 
3 767 888 765 
3 888 887 765 
3 767 779 888 
3 771 770 873 
3 772 771 889 
3 771 873 889 
3 889 775 772 
3 774 890 773 
3 891 773 890 
3 777 773 891 
3 774 892 893 
3 890 774 893 
3 774 775 892 
3 892 775 889 
3 790 776 778 
3 778 777 894 
3 895 777 891 
3 894 777 895 
3 778 894 896 
3 790 778 896 
3 888 779 897 
3 897 779 780 
3 898 897 780 
3 780 899 898 
3 899 780 900 
3 780 782 900 
3 782 780 781 
3 901 782 902 
3 901 900 782 
3 786 902 782 
3 902 786 783 
3 902 783 903 
3 783 784 785 
3 785 903 783 
3 792 904 785 
3 904 903 785 
3 794 787 905 
3 788 905 787 
3 905 788 906 
3 907 788 789 
3 906 788 907 
3 908 907 789 
3 791 909 789 
3 908 789 909 
3 910 790 896 
3 791 790 911 
3 790 910 911 
3 912 791 911 
3 912 909 791 
3 793 913 792 
3 914 904 792 
3 914 792 913 
3 913 793 915 
3 915 793 794 
3 905 916 794 
3 794 916 915 
3 917 797 795 
3 917 795 918 
3 795 796 800 
3 795 800 918 
3 917 816 797 
3 800 798 799 
3 800 801 798 
3 799 918 800 
3 918 799 919 
3 920 799 803 
3 920 919 799 
3 921 920 803 
3 805 803 804 
3 805 921 803 
3 922 921 805 
3 805 806 922 
3 923 922 806 
3 923 806 807 
3 924 923 807 
3 807 925 924 
3 807 808 809 
3 809 925 807 
3 809 811 926 
3 809 927 925 
3 928 927 809 
3 926 928 809 
3 929 811 810 
3 930 929 810 
3 930 810 812 
3 931 926 811 
3 931 811 929 
3 812 881 930 
3 813 822 815 
3 814 917 813 
3 932 933 813 
3 813 933 934 
3 822 813 935 
3 935 813 934 
3 813 917 932 
3 814 816 917 
3 835 817 823 
3 823 817 819 
3 821 820 936 
3 936 820 822 
3 936 825 821 
3 935 936 822 
3 823 937 835 
3 823 938 939 
3 940 937 823 
3 938 823 824 
3 823 939 940 
3 938 824 825 
3 941 938 825 
3 942 941 825 
3 935 942 825 
3 825 936 935 
3 943 828 826 
3 943 826 827 
3 943 827 944 
3 944 827 830 
3 945 828 943 
3 828 945 829 
3 946 838 829 
3 829 945 946 
3 830 947 944 
3 947 830 833 
3 948 949 831 
3 950 831 949 
3 831 832 948 
3 950 833 831 
3 837 951 832 
3 951 948 832 
3 950 952 833 
3 833 952 947 
3 953 954 835 
3 836 835 954 
3 953 835 937 
3 836 951 837 
3 955 951 836 
3 836 954 955 
3 946 839 838 
3 839 946 842 
3 840 841 956 
3 840 956 848 
3 848 843 840 
3 842 957 841 
3 957 956 841 
3 950 842 958 
3 959 960 842 
3 842 961 959 
3 842 950 962 
3 842 962 961 
3 842 960 963 
3 946 958 842 
3 842 963 957 
3 845 964 844 
3 844 964 965 
3 965 849 844 
3 966 967 845 
3 846 968 845 
3 968 966 845 
3 845 969 970 
3 845 967 971 
3 970 964 845 
3 845 971 972 
3 969 845 972 
3 847 973 846 
3 974 846 975 
3 968 846 974 
3 973 975 846 
3 976 847 848 
3 847 977 973 
3 847 976 977 
3 963 976 848 
3 963 848 956 
3 850 849 978 
3 849 965 978 
3 978 851 850 
3 979 851 980 
3 980 851 978 
3 981 853 851 
3 979 981 851 
3 852 853 982 
3 852 857 854 
3 983 857 852 
3 982 984 852 
3 984 983 852 
3 985 853 981 
3 985 982 853 
3 986 856 855 
3 983 984 855 
3 857 983 855 
3 987 855 984 
3 987 986 855 
3 856 986 859 
3 861 858 988 
3 858 860 988 
3 859 987 989 
3 987 859 986 
3 989 860 859 
3 989 988 860 
3 863 862 861 
3 863 861 990 
3 990 861 988 
3 990 991 863 
3 863 991 865 
3 864 865 992 
3 866 864 992 
3 993 865 991 
3 865 993 992 
3 866 994 869 
3 992 994 866 
3 867 995 871 
3 996 997 867 
3 867 868 996 
3 995 867 997 
3 869 998 868 
3 996 868 998 
3 999 869 994 
3 998 869 999 
3 1000 870 871 
3 874 870 1001 
3 870 1000 1002 
3 1001 870 1002 
3 871 995 1003 
3 871 1003 1004 
3 1000 871 1004 
3 874 1005 872 
3 872 1006 873 
3 1006 872 1005 
3 1006 1007 873 
3 889 873 1007 
3 1008 1009 874 
3 874 1010 1008 
3 874 1001 1010 
3 874 1009 1011 
3 1005 874 1011 
3 1012 877 875 
3 878 1013 875 
3 875 1013 1014 
3 1015 1012 875 
3 1015 875 1014 
3 1016 886 876 
3 877 1016 876 
3 877 1012 883 
3 883 1016 877 
3 1017 1013 878 
3 1017 878 879 
3 879 887 1018 
3 879 1018 1017 
3 881 1019 1020 
3 1021 1022 881 
3 881 1022 1023 
3 881 1020 1021 
3 1024 881 882 
3 881 1024 1025 
3 881 1025 1026 
3 881 1026 1027 
3 881 1023 930 
3 881 1027 1019 
3 882 1028 1024 
3 1028 882 1029 
3 1030 1029 882 
3 883 1030 882 
3 1031 1016 883 
3 883 885 1031 
3 1030 883 1032 
3 1032 883 1012 
3 1031 885 884 
3 884 886 1031 
3 886 1016 1031 
3 897 1018 887 
3 897 887 888 
3 889 893 892 
3 889 1007 1033 
3 1034 889 1033 
3 893 889 1034 
3 895 890 1035 
3 895 891 890 
3 1035 890 893 
3 1035 893 1036 
3 1034 1036 893 
3 894 1037 1038 
3 896 894 1038 
3 894 895 1037 
3 1037 895 1039 
3 1035 1039 895 
3 910 896 1038 
3 1018 897 1040 
3 1040 897 898 
3 1041 898 899 
3 1040 898 1041 
3 1042 899 900 
3 1042 1041 899 
3 900 901 1043 
3 900 1043 1042 
3 901 902 1043 
3 902 1044 1043 
3 902 903 1044 
3 1044 903 1045 
3 904 914 903 
3 903 914 1046 
3 1045 903 1046 
3 905 1047 916 
3 906 1048 905 
3 905 1048 1047 
3 907 1049 906 
3 1050 1048 906 
3 1050 906 1049 
3 907 908 1049 
3 1051 908 909 
3 908 1052 1053 
3 1053 1049 908 
3 1052 908 1051 
3 909 1054 1051 
3 1054 909 912 
3 1038 1055 910 
3 1055 911 910 
3 1056 911 1055 
3 1057 912 911 
3 1056 1057 911 
3 1058 1054 912 
3 912 1057 1058 
3 1059 914 913 
3 913 915 1059 
3 1060 1046 914 
3 1059 1060 914 
3 915 916 1059 
3 1061 1059 916 
3 916 1062 1061 
3 1062 916 1047 
3 917 918 932 
3 932 918 1063 
3 919 1063 918 
3 1064 919 920 
3 1064 1063 919 
3 1065 1064 920 
3 920 921 922 
3 922 1065 920 
3 1066 1065 922 
3 1066 922 923 
3 923 924 1066 
3 924 927 1066 
3 927 924 925 
3 928 926 927 
3 926 931 1067 
3 1067 927 926 
3 1068 1069 927 
3 927 1067 1068 
3 1069 1066 927 
3 1070 931 929 
3 1071 929 930 
3 929 1071 1070 
3 930 1072 1071 
3 930 1073 1072 
3 1074 1073 930 
3 930 1023 1074 
3 931 1070 1075 
3 1075 1067 931 
3 933 932 1076 
3 1063 1076 932 
3 1076 1077 933 
3 1077 1078 933 
3 1078 934 933 
3 1079 935 934 
3 1079 934 1078 
3 1080 942 935 
3 1080 935 1079 
3 953 937 940 
3 939 938 1081 
3 1081 938 941 
3 1082 953 939 
3 939 1083 1082 
3 940 939 953 
3 1083 939 1081 
3 1081 941 942 
3 942 1084 1083 
3 1083 1081 942 
3 1085 1084 942 
3 1080 1086 942 
3 1087 1085 942 
3 942 1086 1087 
3 944 945 943 
3 944 946 945 
3 946 944 958 
3 944 947 958 
3 958 947 952 
3 948 1088 949 
3 1089 1090 948 
3 948 951 1089 
3 948 1090 1088 
3 949 962 950 
3 1088 961 949 
3 962 949 961 
3 958 952 950 
3 955 1089 951 
3 954 953 1091 
3 1082 1091 953 
3 954 1092 955 
3 954 1093 1092 
3 1093 954 1091 
3 1089 955 1092 
3 963 956 957 
3 959 1094 960 
3 959 961 1094 
3 960 1094 977 
3 977 963 960 
3 961 1088 1095 
3 961 1095 1094 
3 976 963 977 
3 964 978 965 
3 980 978 964 
3 970 980 964 
3 966 1096 967 
3 1096 966 1097 
3 966 974 1097 
3 966 968 974 
3 1098 967 1099 
3 1099 967 1096 
3 1098 971 967 
3 970 969 1100 
3 1101 1100 969 
3 1101 969 972 
3 1100 980 970 
3 1102 971 1098 
3 1103 971 1102 
3 1103 972 971 
3 1101 972 1104 
3 972 1103 1104 
3 973 1105 975 
3 1106 1105 973 
3 977 1106 973 
3 974 975 1097 
3 1097 975 1105 
3 977 1107 1106 
3 1107 977 1094 
3 980 1108 979 
3 979 1109 981 
3 979 1108 1110 
3 1110 1109 979 
3 980 1100 1108 
3 1111 985 981 
3 981 1109 1111 
3 982 985 1112 
3 1112 1113 982 
3 984 982 987 
3 987 982 1113 
3 985 1111 1114 
3 985 1114 1112 
3 1115 987 1113 
3 987 1115 989 
3 988 1116 1117 
3 988 989 1116 
3 988 1117 990 
3 1115 1118 989 
3 989 1118 1116 
3 1119 990 1117 
3 1119 991 990 
3 991 1119 993 
3 1120 992 993 
3 1120 994 992 
3 1119 1121 993 
3 1120 993 1121 
3 999 994 1120 
3 1122 995 997 
3 1003 995 1122 
3 997 996 1122 
3 1123 1124 996 
3 998 1125 996 
3 996 1125 1123 
3 996 1124 1122 
3 1125 998 999 
3 1125 999 1120 
3 1002 1000 1004 
3 1001 1002 1010 
3 1126 1010 1002 
3 1002 1004 1126 
3 1122 1004 1003 
3 1122 1127 1004 
3 1126 1004 1127 
3 1011 1128 1005 
3 1128 1129 1005 
3 1007 1005 1129 
3 1007 1006 1005 
3 1129 1033 1007 
3 1008 1130 1009 
3 1131 1130 1008 
3 1008 1010 1131 
3 1011 1009 1130 
3 1010 1126 1131 
3 1128 1011 1132 
3 1130 1132 1011 
3 1012 1015 1133 
3 1133 1032 1012 
3 1013 1017 1134 
3 1014 1013 1134 
3 1015 1014 1135 
3 1014 1134 1136 
3 1014 1136 1137 
3 1137 1135 1014 
3 1015 1138 1133 
3 1139 1138 1015 
3 1135 1139 1015 
3 1134 1017 1018 
3 1018 1040 1134 
3 1140 1020 1019 
3 1140 1019 1141 
3 1019 1027 1141 
3 1140 1142 1020 
3 1020 1142 1143 
3 1020 1143 1021 
3 1021 1143 1022 
3 1143 1144 1022 
3 1144 1023 1022 
3 1023 1144 1074 
3 1028 1145 1024 
3 1024 1145 1146 
3 1025 1024 1146 
3 1147 1025 1148 
3 1026 1025 1147 
3 1146 1148 1025 
3 1026 1149 1150 
3 1151 1026 1150 
3 1027 1026 1152 
3 1147 1149 1026 
3 1151 1152 1026 
3 1153 1141 1027 
3 1152 1153 1027 
3 1154 1155 1028 
3 1028 1029 1156 
3 1028 1157 1145 
3 1154 1028 1156 
3 1157 1028 1155 
3 1156 1029 1030 
3 1032 1156 1030 
3 1156 1032 1154 
3 1155 1154 1032 
3 1032 1133 1155 
3 1036 1033 1129 
3 1033 1036 1034 
3 1035 1158 1039 
3 1159 1035 1036 
3 1159 1158 1035 
3 1160 1036 1129 
3 1036 1161 1162 
3 1036 1162 1159 
3 1160 1161 1036 
3 1038 1037 1039 
3 1039 1158 1038 
3 1055 1038 1163 
3 1038 1158 1163 
3 1136 1134 1040 
3 1041 1164 1040 
3 1136 1040 1164 
3 1165 1164 1041 
3 1041 1042 1166 
3 1165 1041 1166 
3 1044 1042 1043 
3 1166 1042 1167 
3 1044 1167 1042 
3 1168 1167 1044 
3 1044 1045 1168 
3 1169 1168 1045 
3 1046 1169 1045 
3 1169 1046 1170 
3 1170 1046 1060 
3 1171 1047 1050 
3 1050 1047 1048 
3 1172 1062 1047 
3 1171 1173 1047 
3 1173 1172 1047 
3 1053 1050 1049 
3 1050 1053 1171 
3 1174 1051 1054 
3 1051 1175 1052 
3 1051 1174 1175 
3 1053 1052 1176 
3 1175 1176 1052 
3 1177 1171 1053 
3 1053 1178 1177 
3 1179 1178 1053 
3 1179 1053 1176 
3 1174 1054 1058 
3 1163 1180 1055 
3 1055 1181 1056 
3 1055 1180 1182 
3 1182 1181 1055 
3 1056 1181 1183 
3 1183 1057 1056 
3 1058 1057 1183 
3 1058 1184 1174 
3 1185 1184 1058 
3 1185 1058 1183 
3 1186 1059 1061 
3 1060 1059 1187 
3 1186 1187 1059 
3 1060 1188 1170 
3 1060 1187 1188 
3 1172 1189 1061 
3 1061 1062 1172 
3 1061 1190 1186 
3 1190 1061 1191 
3 1061 1192 1191 
3 1189 1192 1061 
3 1063 1193 1194 
3 1076 1063 1195 
3 1063 1194 1196 
3 1196 1195 1063 
3 1064 1193 1063 
3 1064 1069 1193 
3 1064 1065 1069 
3 1069 1065 1066 
3 1194 1068 1067 
3 1067 1196 1194 
3 1197 1195 1067 
3 1196 1067 1195 
3 1067 1198 1197 
3 1075 1199 1067 
3 1199 1198 1067 
3 1194 1193 1068 
3 1193 1069 1068 
3 1070 1199 1075 
3 1070 1200 1199 
3 1071 1200 1070 
3 1200 1071 1072 
3 1201 1200 1072 
3 1202 1072 1073 
3 1202 1201 1072 
3 1073 1203 1204 
3 1073 1205 1141 
3 1141 1203 1073 
3 1073 1074 1205 
3 1204 1202 1073 
3 1074 1144 1205 
3 1195 1077 1076 
3 1078 1077 1195 
3 1195 1206 1078 
3 1207 1079 1078 
3 1207 1078 1206 
3 1079 1207 1208 
3 1079 1086 1080 
3 1086 1079 1208 
3 1083 1209 1082 
3 1091 1082 1209 
3 1084 1210 1083 
3 1210 1209 1083 
3 1211 1084 1085 
3 1211 1210 1084 
3 1211 1085 1087 
3 1086 1212 1213 
3 1214 1086 1208 
3 1213 1087 1086 
3 1086 1214 1212 
3 1211 1087 1215 
3 1215 1087 1216 
3 1216 1087 1213 
3 1095 1088 1090 
3 1089 1217 1090 
3 1218 1219 1089 
3 1089 1092 1218 
3 1219 1217 1089 
3 1095 1090 1107 
3 1107 1090 1217 
3 1091 1220 1093 
3 1220 1091 1209 
3 1092 1093 1218 
3 1218 1093 1220 
3 1094 1095 1107 
3 1221 1096 1218 
3 1096 1097 1222 
3 1221 1099 1096 
3 1096 1222 1218 
3 1097 1219 1222 
3 1097 1105 1219 
3 1099 1223 1098 
3 1098 1223 1224 
3 1224 1102 1098 
3 1099 1221 1225 
3 1099 1225 1223 
3 1100 1226 1108 
3 1101 1226 1100 
3 1104 1226 1101 
3 1102 1224 1227 
3 1102 1228 1103 
3 1227 1228 1102 
3 1103 1229 1104 
3 1103 1230 1229 
3 1228 1230 1103 
3 1104 1229 1231 
3 1231 1226 1104 
3 1106 1232 1105 
3 1219 1105 1232 
3 1233 1232 1106 
3 1106 1107 1233 
3 1107 1217 1233 
3 1226 1110 1108 
3 1109 1110 1234 
3 1235 1109 1234 
3 1111 1109 1114 
3 1114 1109 1236 
3 1236 1109 1235 
3 1110 1226 1231 
3 1110 1231 1234 
3 1237 1112 1114 
3 1112 1237 1238 
3 1113 1112 1238 
3 1113 1239 1115 
3 1239 1113 1238 
3 1237 1114 1236 
3 1115 1239 1240 
3 1115 1240 1118 
3 1116 1241 1117 
3 1241 1116 1242 
3 1116 1118 1243 
3 1243 1242 1116 
3 1117 1241 1119 
3 1244 1118 1240 
3 1118 1244 1243 
3 1119 1241 1245 
3 1119 1245 1246 
3 1121 1119 1246 
3 1120 1121 1125 
3 1246 1247 1121 
3 1247 1125 1121 
3 1248 1122 1124 
3 1122 1248 1249 
3 1249 1127 1122 
3 1250 1124 1123 
3 1125 1250 1123 
3 1124 1250 1248 
3 1247 1250 1125 
3 1126 1127 1251 
3 1252 1131 1126 
3 1252 1126 1251 
3 1127 1253 1251 
3 1127 1249 1254 
3 1254 1253 1127 
3 1132 1255 1128 
3 1129 1128 1160 
3 1160 1128 1255 
3 1252 1132 1130 
3 1130 1131 1252 
3 1252 1256 1132 
3 1132 1256 1257 
3 1132 1257 1255 
3 1133 1258 1259 
3 1260 1133 1259 
3 1133 1260 1155 
3 1133 1138 1258 
3 1139 1135 1261 
3 1261 1135 1262 
3 1262 1135 1137 
3 1164 1137 1136 
3 1137 1263 1264 
3 1137 1164 1265 
3 1266 1137 1267 
3 1137 1264 1267 
3 1268 1137 1265 
3 1263 1137 1268 
3 1266 1262 1137 
3 1258 1138 1139 
3 1269 1139 1261 
3 1258 1139 1269 
3 1141 1205 1140 
3 1142 1140 1205 
3 1270 1141 1153 
3 1270 1203 1141 
3 1205 1144 1142 
3 1144 1143 1142 
3 1157 1271 1145 
3 1145 1271 1146 
3 1272 1148 1146 
3 1146 1271 1272 
3 1273 1147 1148 
3 1273 1149 1147 
3 1148 1150 1273 
3 1148 1274 1150 
3 1274 1148 1275 
3 1148 1272 1275 
3 1150 1149 1273 
3 1276 1151 1150 
3 1150 1274 1276 
3 1152 1151 1244 
3 1244 1151 1276 
3 1244 1153 1152 
3 1153 1240 1277 
3 1277 1270 1153 
3 1244 1240 1153 
3 1155 1278 1157 
3 1155 1260 1278 
3 1271 1157 1279 
3 1278 1279 1157 
3 1158 1159 1280 
3 1158 1280 1281 
3 1158 1282 1180 
3 1282 1158 1281 
3 1163 1158 1180 
3 1162 1280 1159 
3 1160 1283 1284 
3 1284 1161 1160 
3 1255 1285 1160 
3 1283 1160 1285 
3 1162 1161 1284 
3 1162 1284 1286 
3 1280 1162 1286 
3 1165 1265 1164 
3 1165 1287 1288 
3 1268 1165 1288 
3 1165 1166 1287 
3 1268 1265 1165 
3 1166 1167 1289 
3 1166 1289 1290 
3 1290 1287 1166 
3 1167 1169 1289 
3 1169 1167 1168 
3 1170 1289 1169 
3 1289 1170 1188 
3 1173 1171 1291 
3 1177 1291 1171 
3 1189 1172 1173 
3 1173 1292 1189 
3 1291 1293 1173 
3 1293 1292 1173 
3 1174 1294 1295 
3 1176 1175 1174 
3 1176 1174 1296 
3 1295 1296 1174 
3 1294 1174 1184 
3 1296 1179 1176 
3 1297 1291 1177 
3 1297 1177 1178 
3 1297 1178 1298 
3 1298 1178 1299 
3 1299 1178 1296 
3 1178 1179 1296 
3 1300 1182 1180 
3 1180 1282 1300 
3 1182 1301 1181 
3 1181 1302 1303 
3 1302 1181 1301 
3 1181 1304 1305 
3 1305 1183 1181 
3 1304 1181 1303 
3 1301 1182 1300 
3 1183 1305 1185 
3 1306 1294 1184 
3 1306 1184 1307 
3 1307 1184 1185 
3 1308 1185 1309 
3 1310 1307 1185 
3 1309 1185 1305 
3 1308 1310 1185 
3 1187 1186 1311 
3 1311 1186 1190 
3 1188 1187 1312 
3 1311 1312 1187 
3 1188 1313 1289 
3 1313 1188 1312 
3 1189 1292 1192 
3 1190 1314 1311 
3 1190 1315 1314 
3 1191 1315 1190 
3 1191 1316 1315 
3 1192 1316 1191 
3 1192 1317 1316 
3 1292 1317 1192 
3 1195 1197 1206 
3 1207 1206 1197 
3 1207 1197 1318 
3 1318 1197 1198 
3 1318 1198 1199 
3 1319 1318 1199 
3 1199 1201 1320 
3 1320 1321 1199 
3 1199 1321 1319 
3 1201 1199 1200 
3 1201 1202 1320 
3 1202 1322 1320 
3 1204 1322 1202 
3 1203 1322 1204 
3 1322 1203 1323 
3 1323 1203 1324 
3 1324 1203 1270 
3 1208 1207 1319 
3 1319 1207 1318 
3 1319 1214 1208 
3 1209 1225 1220 
3 1225 1209 1210 
3 1325 1225 1210 
3 1325 1210 1211 
3 1326 1325 1211 
3 1326 1211 1327 
3 1215 1327 1211 
3 1328 1213 1212 
3 1328 1212 1214 
3 1213 1328 1216 
3 1319 1329 1214 
3 1214 1329 1328 
3 1327 1215 1216 
3 1328 1330 1216 
3 1327 1216 1331 
3 1330 1331 1216 
3 1232 1217 1219 
3 1233 1217 1232 
3 1218 1220 1221 
3 1222 1219 1218 
3 1221 1220 1225 
3 1223 1225 1325 
3 1224 1223 1325 
3 1326 1224 1325 
3 1227 1224 1326 
3 1326 1332 1227 
3 1230 1228 1227 
3 1227 1332 1333 
3 1333 1230 1227 
3 1334 1229 1230 
3 1229 1334 1231 
3 1230 1333 1334 
3 1231 1334 1335 
3 1234 1231 1335 
3 1235 1234 1336 
3 1337 1336 1234 
3 1234 1335 1337 
3 1235 1336 1338 
3 1338 1339 1235 
3 1236 1235 1340 
3 1339 1340 1235 
3 1237 1236 1340 
3 1238 1237 1277 
3 1237 1340 1277 
3 1240 1239 1238 
3 1238 1277 1240 
3 1341 1241 1242 
3 1245 1241 1341 
3 1242 1243 1274 
3 1342 1341 1242 
3 1242 1274 1342 
3 1243 1244 1276 
3 1274 1243 1276 
3 1246 1245 1341 
3 1341 1343 1246 
3 1344 1246 1343 
3 1345 1247 1246 
3 1345 1246 1344 
3 1346 1247 1345 
3 1250 1247 1346 
3 1250 1347 1248 
3 1249 1248 1347 
3 1249 1348 1254 
3 1348 1249 1347 
3 1250 1346 1347 
3 1253 1349 1251 
3 1350 1251 1351 
3 1351 1251 1349 
3 1251 1350 1252 
3 1252 1350 1352 
3 1352 1256 1252 
3 1254 1353 1253 
3 1354 1253 1353 
3 1354 1349 1253 
3 1355 1254 1348 
3 1254 1355 1356 
3 1254 1356 1353 
3 1255 1357 1285 
3 1357 1255 1257 
3 1257 1256 1358 
3 1256 1352 1358 
3 1257 1358 1359 
3 1359 1357 1257 
3 1360 1259 1258 
3 1258 1361 1360 
3 1361 1258 1269 
3 1259 1362 1363 
3 1363 1260 1259 
3 1259 1364 1365 
3 1259 1366 1364 
3 1365 1362 1259 
3 1366 1259 1367 
3 1367 1259 1360 
3 1363 1368 1260 
3 1260 1368 1278 
3 1269 1261 1369 
3 1369 1261 1266 
3 1261 1262 1266 
3 1263 1370 1264 
3 1371 1370 1263 
3 1371 1263 1268 
3 1264 1370 1267 
3 1267 1369 1266 
3 1267 1372 1373 
3 1369 1267 1373 
3 1374 1372 1267 
3 1374 1267 1375 
3 1267 1370 1376 
3 1267 1376 1375 
3 1377 1371 1268 
3 1288 1378 1268 
3 1268 1379 1377 
3 1268 1378 1380 
3 1380 1381 1268 
3 1381 1379 1268 
3 1382 1361 1269 
3 1373 1269 1369 
3 1373 1383 1269 
3 1383 1382 1269 
3 1324 1270 1277 
3 1271 1384 1272 
3 1384 1271 1279 
3 1275 1272 1384 
3 1385 1386 1274 
3 1385 1274 1275 
3 1386 1342 1274 
3 1275 1384 1387 
3 1385 1275 1387 
3 1277 1340 1324 
3 1278 1362 1385 
3 1362 1278 1368 
3 1385 1279 1278 
3 1387 1384 1279 
3 1387 1279 1385 
3 1388 1281 1280 
3 1388 1280 1286 
3 1389 1281 1388 
3 1281 1389 1390 
3 1281 1390 1282 
3 1282 1390 1389 
3 1391 1392 1282 
3 1282 1393 1300 
3 1282 1389 1391 
3 1392 1393 1282 
3 1284 1283 1394 
3 1285 1395 1283 
3 1394 1283 1395 
3 1394 1286 1284 
3 1395 1285 1357 
3 1286 1394 1396 
3 1397 1398 1286 
3 1396 1397 1286 
3 1286 1399 1388 
3 1286 1398 1399 
3 1288 1287 1290 
3 1288 1290 1313 
3 1313 1378 1288 
3 1290 1289 1313 
3 1291 1400 1401 
3 1401 1293 1291 
3 1400 1291 1297 
3 1292 1402 1317 
3 1293 1402 1292 
3 1401 1402 1293 
3 1294 1403 1295 
3 1404 1405 1294 
3 1403 1294 1405 
3 1306 1404 1294 
3 1295 1406 1296 
3 1295 1403 1406 
3 1296 1407 1408 
3 1296 1408 1299 
3 1409 1407 1296 
3 1296 1406 1409 
3 1297 1298 1400 
3 1410 1298 1411 
3 1400 1298 1410 
3 1412 1411 1298 
3 1298 1299 1412 
3 1408 1412 1299 
3 1413 1300 1393 
3 1301 1300 1414 
3 1300 1413 1414 
3 1415 1302 1301 
3 1415 1301 1414 
3 1415 1303 1302 
3 1415 1416 1303 
3 1416 1417 1303 
3 1303 1417 1304 
3 1305 1304 1309 
3 1418 1304 1417 
3 1309 1304 1418 
3 1419 1404 1306 
3 1306 1307 1310 
3 1310 1420 1306 
3 1306 1420 1419 
3 1421 1308 1309 
3 1422 1310 1308 
3 1308 1421 1422 
3 1309 1423 1424 
3 1309 1424 1421 
3 1423 1309 1418 
3 1310 1422 1425 
3 1425 1420 1310 
3 1312 1311 1426 
3 1311 1314 1426 
3 1312 1427 1313 
3 1426 1427 1312 
3 1313 1427 1378 
3 1428 1426 1314 
3 1314 1429 1428 
3 1315 1429 1314 
3 1429 1315 1316 
3 1429 1316 1317 
3 1317 1430 1429 
3 1430 1317 1402 
3 1329 1319 1321 
3 1321 1320 1431 
3 1320 1322 1431 
3 1432 1329 1321 
3 1431 1432 1321 
3 1323 1431 1322 
3 1323 1324 1339 
3 1431 1323 1339 
3 1340 1339 1324 
3 1327 1332 1326 
3 1332 1327 1433 
3 1433 1327 1331 
3 1329 1432 1328 
3 1432 1330 1328 
3 1339 1331 1330 
3 1330 1432 1339 
3 1338 1434 1331 
3 1339 1338 1331 
3 1434 1435 1331 
3 1331 1435 1433 
3 1436 1332 1433 
3 1332 1436 1333 
3 1333 1436 1334 
3 1436 1437 1334 
3 1334 1437 1335 
3 1438 1335 1437 
3 1337 1335 1438 
3 1338 1336 1434 
3 1336 1337 1434 
3 1434 1337 1438 
3 1339 1432 1431 
3 1342 1386 1341 
3 1439 1440 1341 
3 1341 1440 1343 
3 1441 1439 1341 
3 1341 1386 1441 
3 1440 1442 1343 
3 1443 1344 1343 
3 1343 1442 1444 
3 1443 1343 1444 
3 1445 1446 1344 
3 1345 1344 1446 
3 1344 1443 1445 
3 1447 1346 1345 
3 1345 1446 1447 
3 1448 1346 1447 
3 1449 1346 1448 
3 1347 1346 1449 
3 1347 1449 1450 
3 1347 1450 1451 
3 1347 1451 1348 
3 1355 1348 1451 
3 1452 1349 1354 
3 1452 1453 1349 
3 1454 1351 1349 
3 1454 1349 1453 
3 1350 1351 1454 
3 1350 1454 1455 
3 1350 1456 1352 
3 1455 1457 1350 
3 1350 1457 1456 
3 1458 1358 1352 
3 1352 1456 1458 
3 1353 1356 1459 
3 1460 1353 1459 
3 1460 1354 1353 
3 1461 1354 1460 
3 1461 1452 1354 
3 1451 1356 1355 
3 1462 1356 1451 
3 1356 1462 1463 
3 1464 1356 1463 
3 1464 1465 1356 
3 1356 1465 1459 
3 1359 1466 1357 
3 1395 1357 1467 
3 1357 1466 1468 
3 1357 1469 1467 
3 1470 1471 1357 
3 1357 1468 1470 
3 1469 1357 1471 
3 1358 1458 1359 
3 1472 1466 1359 
3 1473 1474 1359 
3 1474 1472 1359 
3 1359 1458 1473 
3 1367 1360 1475 
3 1476 1477 1360 
3 1477 1475 1360 
3 1476 1360 1361 
3 1478 1361 1382 
3 1361 1478 1476 
3 1362 1368 1363 
3 1385 1362 1365 
3 1364 1479 1365 
3 1479 1364 1441 
3 1366 1441 1364 
3 1365 1479 1385 
3 1366 1439 1441 
3 1444 1439 1366 
3 1444 1366 1480 
3 1367 1480 1366 
3 1481 1482 1367 
3 1482 1480 1367 
3 1481 1367 1483 
3 1367 1475 1483 
3 1370 1484 1376 
3 1371 1484 1370 
3 1377 1484 1371 
3 1485 1373 1372 
3 1374 1486 1372 
3 1485 1372 1486 
3 1485 1487 1373 
3 1373 1487 1383 
3 1488 1379 1374 
3 1489 1486 1374 
3 1374 1379 1381 
3 1375 1488 1374 
3 1381 1489 1374 
3 1488 1375 1376 
3 1376 1484 1488 
3 1379 1484 1377 
3 1378 1427 1428 
3 1490 1378 1428 
3 1491 1378 1490 
3 1492 1380 1378 
3 1492 1378 1491 
3 1484 1379 1488 
3 1492 1381 1380 
3 1493 1489 1381 
3 1494 1381 1492 
3 1494 1493 1381 
3 1495 1382 1496 
3 1477 1382 1495 
3 1477 1478 1382 
3 1497 1382 1498 
3 1383 1499 1382 
3 1498 1382 1499 
3 1497 1496 1382 
3 1487 1500 1383 
3 1501 1499 1383 
3 1383 1500 1501 
3 1386 1385 1479 
3 1441 1386 1479 
3 1388 1399 1502 
3 1391 1389 1388 
3 1388 1503 1391 
3 1503 1388 1502 
3 1391 1504 1392 
3 1504 1391 1503 
3 1504 1505 1392 
3 1413 1393 1392 
3 1392 1506 1413 
3 1506 1392 1507 
3 1507 1392 1505 
3 1508 1396 1394 
3 1395 1508 1394 
3 1467 1509 1395 
3 1395 1509 1510 
3 1510 1508 1395 
3 1397 1396 1508 
3 1398 1397 1510 
3 1397 1508 1510 
3 1511 1512 1398 
3 1513 1399 1398 
3 1398 1514 1513 
3 1514 1398 1512 
3 1398 1510 1511 
3 1399 1513 1515 
3 1502 1399 1515 
3 1400 1410 1401 
3 1402 1401 1410 
3 1430 1402 1516 
3 1516 1402 1410 
3 1517 1406 1403 
3 1518 1403 1405 
3 1517 1403 1518 
3 1519 1405 1404 
3 1419 1519 1404 
3 1518 1405 1519 
3 1520 1409 1406 
3 1517 1520 1406 
3 1407 1521 1408 
3 1522 1521 1407 
3 1409 1522 1407 
3 1408 1411 1412 
3 1411 1408 1521 
3 1409 1520 1522 
3 1411 1516 1410 
3 1516 1411 1523 
3 1523 1411 1524 
3 1524 1411 1521 
3 1414 1413 1506 
3 1507 1415 1414 
3 1414 1506 1507 
3 1507 1418 1415 
3 1416 1415 1417 
3 1418 1417 1415 
3 1525 1526 1418 
3 1507 1525 1418 
3 1527 1423 1418 
3 1526 1528 1418 
3 1528 1527 1418 
3 1529 1518 1419 
3 1419 1518 1519 
3 1419 1530 1529 
3 1531 1532 1419 
3 1419 1532 1530 
3 1420 1531 1419 
3 1533 1531 1420 
3 1534 1535 1420 
3 1534 1420 1425 
3 1535 1533 1420 
3 1536 1421 1424 
3 1536 1422 1421 
3 1537 1538 1422 
3 1537 1422 1536 
3 1422 1538 1534 
3 1534 1425 1422 
3 1539 1424 1423 
3 1539 1423 1527 
3 1540 1541 1424 
3 1541 1536 1424 
3 1540 1424 1542 
3 1542 1424 1539 
3 1427 1426 1428 
3 1490 1428 1429 
3 1490 1429 1430 
3 1523 1430 1516 
3 1430 1523 1490 
3 1433 1435 1436 
3 1435 1434 1438 
3 1437 1436 1435 
3 1435 1438 1437 
3 1442 1440 1439 
3 1439 1444 1442 
3 1543 1544 1443 
3 1443 1444 1545 
3 1445 1443 1544 
3 1545 1543 1443 
3 1545 1444 1480 
3 1447 1446 1445 
3 1447 1445 1448 
3 1445 1544 1546 
3 1546 1448 1445 
3 1547 1548 1448 
3 1547 1448 1546 
3 1449 1448 1548 
3 1549 1450 1449 
3 1549 1449 1548 
3 1450 1549 1550 
3 1550 1451 1450 
3 1551 1451 1550 
3 1551 1462 1451 
3 1552 1452 1461 
3 1553 1453 1452 
3 1552 1553 1452 
3 1453 1553 1554 
3 1454 1453 1554 
3 1454 1555 1455 
3 1554 1555 1454 
3 1457 1455 1555 
3 1456 1457 1555 
3 1556 1473 1456 
3 1555 1556 1456 
3 1458 1456 1473 
3 1459 1557 1460 
3 1558 1459 1465 
3 1559 1459 1558 
3 1459 1559 1557 
3 1557 1461 1460 
3 1560 1552 1461 
3 1461 1557 1561 
3 1461 1561 1560 
3 1562 1462 1551 
3 1462 1562 1463 
3 1463 1563 1464 
3 1564 1463 1562 
3 1463 1564 1565 
3 1566 1563 1463 
3 1565 1566 1463 
3 1563 1465 1464 
3 1558 1465 1563 
3 1472 1468 1466 
3 1509 1467 1469 
3 1567 1470 1468 
3 1468 1472 1567 
3 1510 1509 1469 
3 1471 1510 1469 
3 1568 1471 1470 
3 1567 1568 1470 
3 1510 1471 1511 
3 1471 1569 1511 
3 1569 1471 1568 
3 1472 1474 1570 
3 1472 1570 1571 
3 1571 1567 1472 
3 1572 1474 1473 
3 1473 1556 1572 
3 1570 1474 1572 
3 1483 1475 1477 
3 1477 1476 1478 
3 1483 1477 1495 
3 1480 1482 1545 
3 1481 1545 1482 
3 1495 1481 1483 
3 1481 1573 1543 
3 1481 1543 1545 
3 1574 1573 1481 
3 1575 1574 1481 
3 1481 1564 1575 
3 1495 1564 1481 
3 1487 1485 1576 
3 1485 1577 1578 
3 1485 1486 1577 
3 1579 1485 1578 
3 1576 1485 1579 
3 1489 1577 1486 
3 1580 1581 1487 
3 1581 1500 1487 
3 1576 1580 1487 
3 1578 1577 1489 
3 1493 1578 1489 
3 1491 1490 1523 
3 1492 1491 1494 
3 1582 1494 1491 
3 1491 1583 1584 
3 1584 1582 1491 
3 1491 1523 1524 
3 1491 1524 1585 
3 1585 1583 1491 
3 1586 1578 1493 
3 1493 1587 1586 
3 1587 1493 1494 
3 1587 1494 1582 
3 1496 1564 1495 
3 1588 1564 1496 
3 1588 1496 1497 
3 1498 1589 1497 
3 1497 1589 1588 
3 1499 1590 1498 
3 1590 1589 1498 
3 1590 1499 1501 
3 1590 1500 1591 
3 1501 1500 1590 
3 1500 1581 1591 
3 1502 1592 1503 
3 1502 1515 1592 
3 1503 1592 1593 
3 1593 1504 1503 
3 1505 1504 1593 
3 1505 1593 1594 
3 1507 1505 1594 
3 1594 1595 1507 
3 1525 1507 1595 
3 1511 1596 1512 
3 1511 1569 1597 
3 1511 1597 1598 
3 1511 1599 1596 
3 1598 1599 1511 
3 1512 1600 1514 
3 1600 1512 1601 
3 1601 1512 1596 
3 1602 1603 1513 
3 1513 1514 1602 
3 1604 1515 1513 
3 1605 1604 1513 
3 1513 1603 1605 
3 1606 1514 1600 
3 1606 1607 1514 
3 1607 1608 1514 
3 1602 1514 1608 
3 1592 1515 1604 
3 1517 1609 1520 
3 1529 1609 1517 
3 1529 1517 1518 
3 1522 1520 1610 
3 1609 1610 1520 
3 1522 1611 1521 
3 1524 1521 1611 
3 1610 1612 1522 
3 1612 1611 1522 
3 1611 1612 1524 
3 1613 1524 1612 
3 1524 1613 1585 
3 1614 1526 1525 
3 1525 1615 1616 
3 1616 1617 1525 
3 1595 1618 1525 
3 1525 1618 1615 
3 1617 1614 1525 
3 1619 1526 1620 
3 1528 1526 1619 
3 1620 1526 1614 
3 1527 1621 1539 
3 1527 1528 1619 
3 1622 1527 1619 
3 1621 1527 1623 
3 1623 1527 1622 
3 1529 1624 1609 
3 1530 1624 1529 
3 1624 1530 1625 
3 1626 1625 1530 
3 1532 1626 1530 
3 1533 1532 1531 
3 1627 1532 1628 
3 1532 1629 1626 
3 1532 1627 1630 
3 1628 1532 1533 
3 1630 1629 1532 
3 1631 1628 1533 
3 1632 1533 1535 
3 1533 1632 1631 
3 1633 1535 1534 
3 1633 1534 1538 
3 1632 1535 1633 
3 1634 1536 1541 
3 1635 1537 1536 
3 1536 1634 1635 
3 1636 1538 1537 
3 1637 1636 1537 
3 1537 1638 1637 
3 1635 1639 1537 
3 1638 1537 1639 
3 1640 1633 1538 
3 1538 1641 1640 
3 1641 1538 1636 
3 1539 1621 1542 
3 1642 1541 1540 
3 1540 1643 1642 
3 1644 1643 1540 
3 1540 1645 1644 
3 1540 1542 1646 
3 1645 1540 1646 
3 1541 1642 1634 
3 1621 1623 1542 
3 1623 1646 1542 
3 1546 1544 1543 
3 1573 1647 1543 
3 1547 1543 1647 
3 1547 1546 1543 
3 1548 1547 1574 
3 1647 1574 1547 
3 1550 1549 1548 
3 1548 1574 1550 
3 1550 1574 1648 
3 1550 1648 1551 
3 1551 1648 1562 
3 1560 1649 1552 
3 1650 1552 1649 
3 1553 1552 1650 
3 1553 1650 1554 
3 1651 1554 1650 
3 1554 1651 1652 
3 1555 1554 1653 
3 1554 1652 1653 
3 1555 1653 1654 
3 1654 1556 1555 
3 1655 1556 1654 
3 1656 1556 1655 
3 1556 1656 1657 
3 1657 1572 1556 
3 1557 1559 1658 
3 1557 1658 1561 
3 1566 1558 1563 
3 1559 1558 1659 
3 1558 1566 1659 
3 1660 1559 1661 
3 1559 1660 1662 
3 1559 1659 1661 
3 1662 1658 1559 
3 1662 1560 1561 
3 1663 1560 1662 
3 1649 1560 1664 
3 1560 1663 1664 
3 1561 1658 1662 
3 1562 1648 1574 
3 1574 1575 1562 
3 1562 1575 1564 
3 1565 1564 1588 
3 1659 1566 1565 
3 1588 1659 1565 
3 1665 1567 1571 
3 1665 1666 1567 
3 1567 1667 1668 
3 1567 1669 1667 
3 1567 1666 1670 
3 1668 1568 1567 
3 1671 1669 1567 
3 1670 1671 1567 
3 1597 1569 1568 
3 1597 1568 1668 
3 1570 1572 1672 
3 1665 1571 1570 
3 1570 1672 1665 
3 1572 1673 1672 
3 1657 1674 1572 
3 1674 1673 1572 
3 1574 1647 1573 
3 1576 1675 1580 
3 1676 1675 1576 
3 1661 1676 1576 
3 1677 1678 1576 
3 1678 1661 1576 
3 1677 1576 1579 
3 1578 1679 1579 
3 1679 1578 1586 
3 1579 1680 1677 
3 1680 1579 1679 
3 1675 1581 1580 
3 1675 1591 1581 
3 1584 1587 1582 
3 1584 1583 1587 
3 1585 1681 1583 
3 1583 1682 1683 
3 1684 1682 1583 
3 1683 1587 1583 
3 1684 1583 1681 
3 1681 1585 1685 
3 1585 1613 1685 
3 1686 1679 1586 
3 1687 1686 1586 
3 1586 1683 1687 
3 1683 1586 1587 
3 1588 1661 1659 
3 1676 1661 1588 
3 1588 1589 1676 
3 1591 1589 1590 
3 1589 1591 1675 
3 1676 1589 1675 
3 1688 1592 1604 
3 1592 1689 1593 
3 1689 1592 1688 
3 1594 1593 1689 
3 1595 1594 1690 
3 1691 1690 1594 
3 1594 1689 1691 
3 1595 1690 1618 
3 1668 1692 1596 
3 1693 1668 1596 
3 1596 1599 1693 
3 1692 1694 1596 
3 1596 1694 1695 
3 1596 1695 1601 
3 1597 1693 1598 
3 1693 1597 1668 
3 1599 1598 1693 
3 1601 1695 1600 
3 1695 1606 1600 
3 1608 1603 1602 
3 1696 1697 1603 
3 1698 1699 1603 
3 1603 1608 1696 
3 1698 1603 1697 
3 1605 1603 1699 
3 1604 1605 1700 
3 1604 1700 1688 
3 1701 1700 1605 
3 1701 1605 1699 
3 1606 1695 1694 
3 1694 1607 1606 
3 1608 1607 1696 
3 1694 1696 1607 
3 1610 1609 1702 
3 1624 1702 1609 
3 1610 1703 1612 
3 1702 1703 1610 
3 1612 1704 1613 
3 1612 1703 1705 
3 1704 1612 1705 
3 1685 1613 1704 
3 1614 1706 1620 
3 1617 1707 1614 
3 1706 1614 1707 
3 1615 1708 1616 
3 1618 1709 1615 
3 1710 1711 1615 
3 1710 1615 1709 
3 1615 1711 1708 
3 1616 1708 1712 
3 1713 1617 1616 
3 1713 1616 1712 
3 1713 1707 1617 
3 1709 1618 1690 
3 1619 1620 1622 
3 1714 1622 1620 
3 1714 1620 1706 
3 1714 1715 1622 
3 1623 1622 1715 
3 1716 1623 1715 
3 1623 1716 1646 
3 1625 1717 1624 
3 1702 1624 1717 
3 1625 1718 1719 
3 1719 1717 1625 
3 1625 1626 1718 
3 1626 1629 1718 
3 1720 1627 1628 
3 1627 1721 1722 
3 1630 1627 1722 
3 1720 1723 1627 
3 1723 1721 1627 
3 1720 1628 1631 
3 1629 1724 1718 
3 1630 1724 1629 
3 1725 1724 1630 
3 1630 1722 1725 
3 1632 1641 1631 
3 1723 1631 1641 
3 1723 1720 1631 
3 1633 1640 1632 
3 1640 1641 1632 
3 1639 1635 1634 
3 1643 1634 1642 
3 1726 1727 1634 
3 1634 1643 1726 
3 1634 1727 1639 
3 1636 1728 1641 
3 1637 1729 1636 
3 1728 1636 1729 
3 1638 1729 1637 
3 1638 1639 1730 
3 1730 1729 1638 
3 1727 1730 1639 
3 1728 1723 1641 
3 1726 1643 1644 
3 1731 1726 1644 
3 1644 1732 1731 
3 1645 1732 1644 
3 1645 1733 1732 
3 1645 1734 1735 
3 1734 1645 1646 
3 1733 1645 1735 
3 1736 1646 1716 
3 1736 1737 1646 
3 1737 1738 1646 
3 1646 1738 1734 
3 1649 1739 1650 
3 1649 1664 1739 
3 1739 1651 1650 
3 1740 1651 1739 
3 1740 1652 1651 
3 1741 1652 1740 
3 1741 1653 1652 
3 1742 1653 1741 
3 1742 1654 1653 
3 1655 1654 1742 
3 1743 1655 1742 
3 1744 1655 1743 
3 1744 1656 1655 
3 1657 1656 1744 
3 1744 1745 1657 
3 1657 1745 1674 
3 1746 1660 1661 
3 1662 1660 1746 
3 1746 1661 1678 
3 1746 1663 1662 
3 1664 1663 1747 
3 1663 1746 1748 
3 1747 1663 1748 
3 1749 1739 1664 
3 1664 1747 1749 
3 1665 1750 1751 
3 1665 1672 1752 
3 1753 1665 1751 
3 1665 1753 1666 
3 1750 1665 1752 
3 1670 1666 1753 
3 1667 1754 1668 
3 1754 1667 1669 
3 1692 1668 1755 
3 1756 1668 1754 
3 1755 1668 1756 
3 1757 1758 1669 
3 1759 1757 1669 
3 1669 1671 1760 
3 1669 1760 1761 
3 1761 1759 1669 
3 1754 1669 1758 
3 1670 1753 1760 
3 1671 1670 1760 
3 1672 1673 1752 
3 1762 1752 1673 
3 1762 1673 1674 
3 1763 1674 1745 
3 1674 1763 1762 
3 1748 1678 1677 
3 1677 1680 1764 
3 1765 1747 1677 
3 1677 1766 1765 
3 1677 1764 1766 
3 1748 1677 1747 
3 1678 1748 1746 
3 1680 1679 1686 
3 1767 1680 1687 
3 1686 1687 1680 
3 1764 1680 1767 
3 1768 1769 1681 
3 1684 1681 1769 
3 1681 1685 1768 
3 1682 1770 1683 
3 1682 1771 1772 
3 1682 1772 1770 
3 1682 1773 1774 
3 1775 1771 1682 
3 1682 1776 1775 
3 1774 1776 1682 
3 1773 1682 1684 
3 1683 1770 1777 
3 1777 1687 1683 
3 1769 1773 1684 
3 1685 1704 1778 
3 1685 1779 1768 
3 1685 1778 1779 
3 1687 1777 1780 
3 1767 1687 1781 
3 1781 1687 1780 
3 1688 1782 1691 
3 1700 1783 1688 
3 1691 1689 1688 
3 1782 1688 1783 
3 1690 1691 1709 
3 1710 1691 1782 
3 1709 1691 1710 
3 1755 1697 1692 
3 1692 1697 1694 
3 1694 1697 1696 
3 1697 1755 1698 
3 1699 1698 1784 
3 1785 1698 1755 
3 1784 1698 1786 
3 1787 1698 1785 
3 1786 1698 1787 
3 1788 1701 1699 
3 1789 1699 1784 
3 1790 1788 1699 
3 1699 1789 1791 
3 1791 1790 1699 
3 1783 1700 1701 
3 1792 1793 1701 
3 1788 1792 1701 
3 1701 1793 1783 
3 1703 1702 1794 
3 1717 1794 1702 
3 1705 1703 1794 
3 1705 1719 1704 
3 1719 1778 1704 
3 1705 1794 1719 
3 1706 1707 1714 
3 1707 1713 1795 
3 1714 1707 1795 
3 1711 1796 1708 
3 1797 1708 1796 
3 1798 1712 1708 
3 1708 1797 1798 
3 1711 1710 1799 
3 1799 1710 1782 
3 1799 1796 1711 
3 1795 1712 1800 
3 1795 1713 1712 
3 1800 1712 1798 
3 1795 1801 1714 
3 1715 1714 1801 
3 1716 1715 1736 
3 1801 1736 1715 
3 1719 1794 1717 
3 1724 1719 1718 
3 1725 1719 1724 
3 1802 1719 1803 
3 1803 1719 1725 
3 1802 1778 1719 
3 1721 1804 1722 
3 1805 1804 1721 
3 1805 1721 1723 
3 1804 1725 1722 
3 1723 1728 1806 
3 1806 1805 1723 
3 1807 1725 1804 
3 1808 1809 1725 
3 1807 1808 1725 
3 1809 1803 1725 
3 1726 1810 1727 
3 1811 1810 1726 
3 1726 1731 1811 
3 1812 1730 1727 
3 1727 1813 1812 
3 1813 1727 1810 
3 1730 1728 1729 
3 1728 1730 1814 
3 1814 1806 1728 
3 1730 1812 1814 
3 1815 1811 1731 
3 1815 1731 1732 
3 1816 1815 1732 
3 1732 1817 1816 
3 1817 1732 1733 
3 1818 1817 1733 
3 1735 1818 1733 
3 1735 1734 1819 
3 1819 1734 1738 
3 1818 1735 1820 
3 1820 1735 1819 
3 1821 1736 1801 
3 1821 1737 1736 
3 1737 1822 1738 
3 1822 1737 1821 
3 1738 1822 1819 
3 1749 1740 1739 
3 1823 1741 1740 
3 1740 1749 1823 
3 1823 1743 1741 
3 1741 1743 1742 
3 1823 1744 1743 
3 1744 1823 1745 
3 1745 1823 1824 
3 1825 1745 1824 
3 1745 1825 1763 
3 1749 1747 1826 
3 1826 1747 1765 
3 1826 1823 1749 
3 1827 1751 1750 
3 1750 1828 1829 
3 1827 1750 1829 
3 1752 1828 1750 
3 1751 1830 1753 
3 1830 1751 1827 
3 1752 1762 1828 
3 1760 1753 1830 
3 1754 1758 1756 
3 1755 1756 1785 
3 1756 1758 1831 
3 1832 1756 1831 
3 1787 1785 1756 
3 1833 1756 1832 
3 1833 1787 1756 
3 1758 1757 1831 
3 1759 1834 1757 
3 1831 1757 1834 
3 1761 1835 1759 
3 1759 1835 1836 
3 1834 1759 1837 
3 1836 1837 1759 
3 1761 1760 1835 
3 1760 1838 1839 
3 1760 1830 1840 
3 1835 1760 1839 
3 1760 1840 1838 
3 1841 1762 1842 
3 1762 1763 1842 
3 1762 1841 1828 
3 1781 1763 1825 
3 1842 1763 1781 
3 1843 1766 1764 
3 1764 1767 1843 
3 1826 1765 1766 
3 1766 1843 1826 
3 1781 1824 1767 
3 1843 1767 1824 
3 1769 1768 1779 
3 1769 1844 1773 
3 1769 1845 1846 
3 1847 1769 1848 
3 1769 1849 1844 
3 1846 1848 1769 
3 1845 1769 1779 
3 1769 1847 1849 
3 1772 1777 1770 
3 1771 1850 1772 
3 1771 1775 1850 
3 1777 1772 1851 
3 1852 1772 1853 
3 1852 1851 1772 
3 1854 1853 1772 
3 1855 1854 1772 
3 1855 1772 1850 
3 1844 1774 1773 
3 1844 1776 1774 
3 1850 1775 1855 
3 1776 1856 1775 
3 1775 1856 1857 
3 1775 1857 1855 
3 1857 1776 1858 
3 1776 1859 1858 
3 1857 1856 1776 
3 1859 1776 1844 
3 1851 1780 1777 
3 1779 1778 1802 
3 1802 1845 1779 
3 1780 1851 1852 
3 1852 1781 1780 
3 1781 1825 1824 
3 1860 1842 1781 
3 1860 1781 1861 
3 1861 1781 1852 
3 1782 1862 1799 
3 1782 1783 1863 
3 1782 1863 1864 
3 1862 1782 1865 
3 1865 1782 1864 
3 1863 1783 1793 
3 1786 1866 1784 
3 1866 1867 1784 
3 1789 1784 1867 
3 1787 1866 1786 
3 1787 1833 1868 
3 1787 1868 1866 
3 1792 1788 1869 
3 1788 1790 1869 
3 1789 1867 1868 
3 1870 1789 1833 
3 1868 1833 1789 
3 1789 1870 1871 
3 1872 1791 1789 
3 1789 1873 1872 
3 1874 1789 1871 
3 1874 1873 1789 
3 1869 1790 1872 
3 1790 1791 1872 
3 1793 1792 1875 
3 1792 1869 1875 
3 1875 1863 1793 
3 1876 1795 1800 
3 1876 1801 1795 
3 1877 1796 1878 
3 1796 1799 1878 
3 1877 1797 1796 
3 1798 1797 1877 
3 1800 1798 1879 
3 1879 1798 1877 
3 1799 1862 1878 
3 1800 1880 1876 
3 1879 1880 1800 
3 1821 1801 1876 
3 1881 1802 1803 
3 1845 1802 1881 
3 1882 1803 1883 
3 1803 1882 1881 
3 1883 1803 1809 
3 1807 1804 1805 
3 1884 1807 1805 
3 1885 1805 1806 
3 1805 1885 1884 
3 1814 1885 1806 
3 1807 1884 1886 
3 1886 1808 1807 
3 1883 1809 1808 
3 1808 1886 1887 
3 1808 1888 1883 
3 1808 1887 1889 
3 1889 1888 1808 
3 1810 1890 1813 
3 1810 1891 1892 
3 1892 1890 1810 
3 1811 1891 1810 
3 1811 1815 1893 
3 1811 1893 1891 
3 1894 1814 1812 
3 1894 1812 1895 
3 1813 1896 1812 
3 1897 1812 1896 
3 1812 1898 1895 
3 1897 1898 1812 
3 1896 1813 1890 
3 1814 1894 1899 
3 1899 1885 1814 
3 1815 1900 1901 
3 1902 1815 1901 
3 1816 1900 1815 
3 1893 1815 1902 
3 1818 1900 1816 
3 1816 1817 1818 
3 1900 1818 1903 
3 1903 1818 1820 
3 1819 1904 1820 
3 1819 1822 1905 
3 1819 1906 1904 
3 1906 1819 1905 
3 1820 1907 1903 
3 1904 1908 1820 
3 1908 1907 1820 
3 1909 1910 1821 
