NORM_ASCII
2542 5080
   0.0152244   -0.2815730    0.0563807    0.1941473   -0.4227310    0.8852148
   0.0155098   -0.2817055    0.0562411    0.3083725   -0.2760758    0.9103233
   0.0145605   -0.2818356    0.0563532    0.2836762   -0.3970530    0.8728555
   0.0135462   -0.2854991    0.0554401    0.3102150   -0.1354602    0.9409661
   0.0140258   -0.2849867    0.0552513    0.4977842   -0.1144647    0.8597143
   0.0133224   -0.2876388    0.0550737   -0.0345228   -0.2027719    0.9786173
   0.0136032   -0.2869846    0.0551455    0.3627504   -0.1548741    0.9189266
   0.0141259   -0.2830787    0.0558947    0.5129843   -0.4261767    0.7451312
   0.0143024   -0.2835093    0.0555269    0.5541996   -0.3441767    0.7578952
   0.0142508   -0.2848404    0.0551051    0.5620373   -0.3178178    0.7636137
   0.0170934   -0.2813030    0.0556171    0.7384289   -0.2903143    0.6086381
   0.0175567   -0.2826246    0.0538756    0.6831222   -0.5184699    0.5143277
   0.0175215   -0.2820912    0.0544863    0.6777833   -0.5104222    0.5292248
   0.0176820   -0.2839622    0.0526688    0.8218226   -0.2659498    0.5038634
   0.0171481   -0.2834525    0.0535658    0.6025790   -0.4573308    0.6540238
   0.0175065   -0.2856800    0.0524852    0.8361597   -0.1088698    0.5375727
   0.0173900   -0.2868471    0.0525342    0.8476473   -0.0852596    0.5236648
   0.0176289   -0.2874271    0.0519193    0.9516136   -0.0426481    0.3043234
   0.0136767   -0.2883961    0.0548941    0.0488188   -0.2546383    0.9658033
   0.0136651   -0.2880885    0.0549552    0.1634455   -0.1767754    0.9705854
   0.0145978   -0.2897631    0.0543674    0.2676060   -0.2401771    0.9331141
   0.0142815   -0.2886463    0.0546997    0.2581113   -0.1828659    0.9486509
   0.0145552   -0.2911519    0.0539440    0.1398345   -0.2728387    0.9518432
   0.0151404   -0.2899569    0.0540928    0.4338943   -0.2137276    0.8752464
   0.0141836   -0.2913618    0.0538498   -0.2153336   -0.3079172    0.9267246
   0.0146063   -0.2941291    0.0532555   -0.1627629   -0.1787824    0.9703325
   0.0144435   -0.2924056    0.0535373   -0.1696710   -0.2160783    0.9615206
   0.0143800   -0.2941660    0.0531882   -0.3904314   -0.2008421    0.8984575
   0.0141226   -0.2942141    0.0530022   -0.6260299   -0.1933940    0.7554372
   0.0142994   -0.2947657    0.0529946   -0.4768384   -0.1911345    0.8579585
   0.0144766   -0.2953171    0.0529866   -0.4805600   -0.1709200    0.8601444
   0.0148706   -0.2914673    0.0538187    0.1512234   -0.2217479    0.9633065
   0.0147276   -0.2960022    0.0529596   -0.2989032   -0.1464723    0.9429755
   0.0147727   -0.2964323    0.0529164   -0.2804725   -0.1059539    0.9539963
   0.0152290   -0.2969391    0.0529571   -0.0697331   -0.1282449    0.9892879
   0.0145120   -0.2982198    0.0525853   -0.3683084   -0.1054963    0.9236988
   0.0135803   -0.2978419    0.0515368   -0.8651617   -0.0863645    0.4940004
   0.0140798   -0.2988884    0.0521095   -0.7427094   -0.1127913    0.6600462
   0.0146284   -0.2991499    0.0525229   -0.5355129   -0.1269743    0.8349272
   0.0176652   -0.2885848    0.0517529    0.9365609   -0.0318529    0.3490546
   0.0176241   -0.2889146    0.0518311    0.9106402    0.0222734    0.4125995
   0.0176222   -0.2903233    0.0517283    0.8661687   -0.0273862    0.4990007
   0.0176606   -0.2914700    0.0517559    0.7905355    0.0124276    0.6122900
   0.0179732   -0.2930359    0.0513043    0.8932554    0.0618737    0.4452712
   0.0175859   -0.2891655    0.0518948    0.9120338   -0.0330866    0.4087781
   0.0186309   -0.2966384    0.0497986    0.9845882    0.1618976    0.0661459
   0.0184109   -0.2965991    0.0509734    0.8938985    0.0999178    0.4369919
   0.0187557   -0.2978658    0.0482698    0.9227396    0.1496760   -0.3551742
   0.0187473   -0.2990499    0.0477927    0.9173528    0.1867380   -0.3515576
   0.0188319   -0.3007943    0.0473570    0.7775763    0.1385025   -0.6133450
   0.0185922   -0.3002596    0.0472261    0.7535163    0.1485420   -0.6404283
   0.0193949   -0.3013962    0.0481593    0.8827281    0.1792300   -0.4343590
   0.0189161   -0.2983908    0.0487301    0.9782733    0.1762105   -0.1092304
   0.0131804   -0.2979466    0.0507609   -0.9148832   -0.0509589    0.4004895
   0.0127102   -0.3015658    0.0492532   -0.9679349   -0.0302672    0.2493711
   0.0126734   -0.3021822    0.0486972   -0.9962226   -0.0678203   -0.0542303
   0.0138549   -0.3006859    0.0515182   -0.8009766   -0.0638525    0.5952809
   0.0135815   -0.3013281    0.0511005   -0.8006553   -0.0417378    0.5976697
   0.0134712   -0.3019318    0.0509240   -0.8238397   -0.0535104    0.5642914
   0.0127647   -0.3024081    0.0493634   -0.9585735   -0.0190975    0.2842043
   0.0134127   -0.3027154    0.0476393   -0.8406109   -0.1460511   -0.5215768
   0.0141309   -0.3043646    0.0472579   -0.6527501   -0.1179167   -0.7483402
   0.0133492   -0.3022895    0.0476523   -0.8641466   -0.1409368   -0.4831020
   0.0163050   -0.3047173    0.0457456   -0.2489419   -0.0868165   -0.9646195
   0.0153992   -0.3065310    0.0465302   -0.5929970   -0.0786744   -0.8013519
   0.0161319   -0.3051988    0.0458839   -0.5317621   -0.0526125   -0.8452579
   0.0163999   -0.3052804    0.0457460    0.4243048   -0.0311588   -0.9049832
   0.0163999   -0.3052804    0.0457460    0.7600898   -0.0307791   -0.6490887
   0.0131877   -0.3050154    0.0482847   -0.7713298   -0.1233353   -0.6243707
   0.0132902   -0.3044378    0.0480624   -0.6869020   -0.1350387   -0.7140940
   0.0133203   -0.3027226    0.0477412   -0.6972314   -0.1211273   -0.7065384
   0.0127084   -0.3027563    0.0486604   -0.9957209   -0.0571001   -0.0726596
   0.0127688   -0.3033266    0.0486067   -0.9797232   -0.0995411   -0.1738794
   0.0185755   -0.3014328    0.0469295    0.8024921    0.1406512   -0.5798480
   0.0192957   -0.3048012    0.0467459    0.7311902    0.1863309   -0.6562330
   0.0186315   -0.3008359    0.0471376    0.9322963    0.0791935   -0.3529192
   0.0186315   -0.3008359    0.0471376    0.9588266    0.0604844   -0.2774764
   0.0181508   -0.3055982    0.0458277    0.2670948    0.1099574   -0.9573765
   0.0195742   -0.3066388    0.0465561    0.6846765    0.1812179   -0.7059590
   0.0189283   -0.3060438    0.0461422    0.5423761    0.1478979   -0.8270153
   0.0178791   -0.3060077    0.0457101    0.1961745    0.0719012   -0.9779293
   0.0173325   -0.3057293    0.0456329    0.0793789    0.0168007   -0.9967029
   0.0169943   -0.3052024    0.0456195   -0.0566764    0.0207218   -0.9981775
   0.0150409   -0.2822689    0.0559211    0.2543023   -0.6266921    0.7366053
   0.0146973   -0.2826154    0.0558336    0.3907808   -0.5234671    0.7571476
   0.0166278   -0.2815648    0.0558914    0.5344416   -0.3776629    0.7561369
   0.0160492   -0.2819160    0.0559706    0.2801256   -0.6081681    0.7427390
   0.0154129   -0.2820611    0.0560154    0.1635037   -0.6761937    0.7183513
   0.0159400   -0.2821782    0.0557365    0.3652198   -0.7069832    0.6056312
   0.0163071   -0.2819480    0.0558304    0.3644302   -0.5572350    0.7461098
   0.0138716   -0.2866250    0.0551199    0.5002700   -0.1295621    0.8561213
   0.0143164   -0.2854109    0.0550583    0.5199984   -0.0581592    0.8521849
   0.0142514   -0.2848591    0.0551022    0.5744015   -0.0529053    0.8168622
   0.0136198   -0.2872395    0.0551039    0.2176492   -0.1501937    0.9644017
   0.0138999   -0.2872041    0.0550139    0.9606942   -0.0458495    0.2737963
   0.0138999   -0.2872041    0.0550139    0.7434037   -0.0899830    0.6627624
   0.0150730   -0.2829808    0.0552600    0.4403481   -0.5361247    0.7201832
   0.0147226   -0.2847906    0.0547858    0.6070674   -0.2134046    0.7654591
   0.0158604   -0.2841063    0.0540644    0.5713522   -0.2951232    0.7658061
   0.0159319   -0.2836579    0.0542888    0.4980354   -0.4815763    0.7211415
   0.0142914   -0.2848371    0.0550753    0.5655875   -0.2730087    0.7781883
   0.0170309   -0.2817948    0.0553949    0.6341848   -0.4838118    0.6031051
   0.0168555   -0.2828895    0.0543171    0.5474008   -0.6073031    0.5757910
   0.0167780   -0.2821582    0.0552587    0.5883246   -0.5467943    0.5957266
   0.0168307   -0.2824081    0.0549310    0.5113094   -0.6616246    0.5484665
   0.0172856   -0.2844881    0.0529810    0.6613066   -0.2226563    0.7163084
   0.0168350   -0.2839881    0.0534754    0.5282822   -0.3274393    0.7833910
   0.0162018   -0.2834573    0.0542261    0.4529648   -0.5789317    0.6779830
   0.0168610   -0.2851521    0.0532164    0.5926804   -0.1241931    0.7958053
   0.0171733   -0.2862811    0.0528759    0.7200321   -0.0660383    0.6907913
   0.0169821   -0.2868808    0.0529562    0.5988418   -0.0915501    0.7956174
   0.0174234   -0.2874298    0.0523760    0.8392537   -0.0700155    0.5392134
   0.0142257   -0.2877435    0.0548461    0.3894921   -0.0839412    0.9171967
   0.0151225   -0.2893824    0.0542128    0.5172153   -0.1035005    0.8495740
   0.0145459   -0.2882843    0.0546692    0.4476204   -0.0863848    0.8900414
   0.0156718   -0.2908945    0.0536087    0.4886505   -0.1338154    0.8621567
   0.0158175   -0.2893119    0.0537118    0.6565662   -0.0688831    0.7511164
   0.0149208   -0.2934998    0.0533711    0.0260223   -0.1314544    0.9909806
   0.0146164   -0.2946541    0.0531365   -0.2251547   -0.1950292    0.9546041
   0.0154007   -0.2951746    0.0531197    0.0291095   -0.1318938    0.9908364
   0.0153534   -0.2945992    0.0532222    0.1272861   -0.1296875    0.9833511
   0.0155612   -0.2934101    0.0533188    0.1927936   -0.1456520    0.9703691
   0.0146715   -0.2952843    0.0530581   -0.2086902   -0.1306954    0.9692095
   0.0158021   -0.2927985    0.0533171    0.3659013   -0.1103727    0.9240855
   0.0159760   -0.2916166    0.0533606    0.5746970   -0.0599472    0.8161677
   0.0148769   -0.2964148    0.0529441   -0.1249097   -0.1050371    0.9865925
   0.0154484   -0.2957470    0.0530724   -0.0230083   -0.1148604    0.9931152
   0.0153547   -0.2975041    0.0528560   -0.0294990   -0.0723751    0.9969412
   0.0160583   -0.2974069    0.0527813    0.2193333   -0.0921918    0.9712845
   0.0158152   -0.2962776    0.0529684    0.1483299   -0.0919202    0.9846567
   0.0150371   -0.2981300    0.0528008   -0.1830623   -0.0434152    0.9821422
   0.0152427   -0.2986782    0.0527765   -0.1210419   -0.0751254    0.9898005
   0.0151244   -0.2992764    0.0527216   -0.2338486   -0.0890961    0.9681822
   0.0143136   -0.3000047    0.0521643   -0.6605356   -0.0951331    0.7447432
   0.0146798   -0.2993518    0.0525279   -0.4902579   -0.1065632    0.8650384
   0.0174309   -0.2885910    0.0522264    0.8239808   -0.0517257    0.5642517
   0.0174996   -0.2891653    0.0521039    0.8525437    0.0138951    0.5224712
   0.0173100   -0.2891784    0.0523376    0.7536553   -0.0035985    0.6572601
   0.0173407   -0.2897559    0.0522365    0.7743799   -0.0995301    0.6248435
   0.0169728   -0.2906663    0.0524937    0.7051805   -0.0598879    0.7064941
   0.0173127   -0.2920739    0.0521234    0.7525261    0.0512715    0.6565635
   0.0178492   -0.2931808    0.0516045    0.8255254    0.0607066    0.5610904
   0.0178208   -0.2949138    0.0516409    0.7293982   -0.0125399    0.6839745
   0.0181498   -0.2960382    0.0513272    0.7833008    0.0239002    0.6211832
   0.0186854   -0.2971810    0.0502351    0.9729411    0.1714478    0.1548911
   0.0189259   -0.2983568    0.0492803    0.9835123    0.1796107    0.0210587
   0.0178692   -0.2972124    0.0516504    0.6762749    0.0525286    0.7347741
   0.0181777   -0.2977579    0.0514528    0.6834360    0.0700835    0.7266385
   0.0187235   -0.2982972    0.0507410    0.9475959    0.1330619    0.2904420
   0.0179037   -0.2966334    0.0516066    0.6959409    0.0124838    0.7179905
   0.0187226   -0.2988618    0.0509483    0.8488884    0.1103142    0.5169326
   0.0191731   -0.2994927    0.0489861    0.9714487    0.2300540   -0.0579876
   0.0192900   -0.3000710    0.0486768    0.9412824    0.2372805   -0.2401777
   0.0187612   -0.3013934    0.0471574    0.8337183    0.1267100   -0.5374555
   0.0193950   -0.3024251    0.0476517    0.8265342    0.1894224   -0.5300570
   0.0198189   -0.3022961    0.0487506    0.9452563    0.2057219   -0.2533160
   0.0190859   -0.2991551    0.0493192    0.9778093    0.2079762   -0.0251963
   0.0140437   -0.3007112    0.0517556   -0.7480807   -0.0687533    0.6600366
   0.0144922   -0.3022883    0.0521060   -0.7215641   -0.0876198    0.6867809
   0.0133872   -0.3025318    0.0507322   -0.8539911   -0.0312379    0.5193490
   0.0146253   -0.3028457    0.0521240   -0.7017881   -0.1051367    0.7045848
   0.0138246   -0.3030152    0.0512454   -0.7623719   -0.0501876    0.6451901
   0.0127432   -0.3031028    0.0491522   -0.9905516   -0.0572313    0.1246276
   0.0130215   -0.3032044    0.0500316   -0.9319369   -0.0012385    0.3626185
   0.0146236   -0.3060357    0.0470534   -0.6286318   -0.0988706   -0.7713927
   0.0140900   -0.3066529    0.0476603   -0.7139082   -0.1220534   -0.6895202
   0.0161458   -0.3053098    0.0458767   -0.3078110   -0.0454418   -0.9503617
   0.0164804   -0.3058478    0.0457220   -0.4075143   -0.0357690   -0.9124980
   0.0159265   -0.3070559    0.0461456   -0.5880714   -0.0647684   -0.8062115
   0.0152628   -0.3071174    0.0466979    0.2007248   -0.1110883   -0.9733288
   0.0154221   -0.3066608    0.0465312   -0.4314946   -0.0993796   -0.8966248
   0.0167673   -0.3058109    0.0456431   -0.1893962   -0.0173304   -0.9817478
   0.0163999   -0.3052804    0.0457460    0.7787599   -0.0063986   -0.6272895
   0.0166890   -0.3058201    0.0456724   -0.0388914   -0.0347738   -0.9986382
   0.0129202   -0.3044629    0.0485445   -0.9367091   -0.1330644   -0.3238362
   0.0132830   -0.3055784    0.0482856   -0.7966983   -0.1558777   -0.5839298
   0.0127654   -0.3038854    0.0489307   -0.9990049   -0.0436018    0.0093813
   0.0128793   -0.3041323    0.0485673   -0.9912601   -0.1207515   -0.0531264
   0.0186914   -0.3014077    0.0470817    0.7452642    0.1460033   -0.6505876
   0.0197810   -0.3035044    0.0479540    0.8907831    0.2201262   -0.3975550
   0.0197846   -0.3046864    0.0474700    0.7935612    0.2097609   -0.5711927
   0.0183261   -0.3061703    0.0458244    0.0935331    0.0526688   -0.9942221
   0.0186594   -0.3060936    0.0459627    0.4757472    0.1695261   -0.8630906
   0.0185114   -0.3067008    0.0458082    0.3326759    0.0885762   -0.9388722
   0.0195347   -0.3082660    0.0460776    0.5494472    0.1970663   -0.8119561
   0.0207488   -0.3085966    0.0472395    0.7855633    0.2541251   -0.5641904
   0.0202536   -0.3057554    0.0477239    0.8098945    0.2235012   -0.5423265
   0.0173025   -0.3072466    0.0455642   -0.0646322    0.0344610   -0.9973140
   0.0169413   -0.3063628    0.0456208   -0.1302228   -0.0109963   -0.9914238
   0.0183817   -0.3067217    0.0457676    0.2727547    0.1102001   -0.9557514
   0.0185272   -0.3078594    0.0456962    0.2715254    0.1110845   -0.9559990
   0.0175430   -0.3080096    0.0455560    0.0281435    0.0229746   -0.9993398
   0.0154442   -0.2825760    0.0554043    0.2866917   -0.6697696    0.6849938
   0.0158796   -0.2822662    0.0556217    0.1786185   -0.7601979    0.6246556
   0.0165606   -0.2819568    0.0556881    0.5766905   -0.5553556    0.5991729
   0.0162000   -0.2822205    0.0555966    0.8027590   -0.4304937    0.4126174
   0.0162000   -0.2822205    0.0555966    0.7764059   -0.4929608    0.3926621
   0.0138999   -0.2872041    0.0550139    0.8773602   -0.0831053    0.4725807
   0.0141896   -0.2871659    0.0549402    0.4147990   -0.1321411    0.9002669
   0.0156254   -0.2875995    0.0538603    0.6412473   -0.0269405    0.7668612
   0.0142020   -0.2874529    0.0548845    0.6109230   -0.1036438    0.7848765
   0.0157059   -0.2826264    0.0552643    0.2850654   -0.6564056    0.6984765
   0.0161286   -0.2857878    0.0535144    0.5849044   -0.0895457    0.8061441
   0.0157113   -0.2858533    0.0539145    0.6894579   -0.0335269    0.7235495
   0.0160972   -0.2840689    0.0539083    0.5224289   -0.3024236    0.7972503
   0.0166987   -0.2821966    0.0553098    0.5537783   -0.5177060    0.6521580
   0.0164679   -0.2821897    0.0554858    0.4668910   -0.5480906    0.6939809
   0.0160861   -0.2824600    0.0553612    0.2525713   -0.7369435    0.6269944
   0.0164551   -0.2822377    0.0554552    0.5434153   -0.6198151    0.5661528
   0.0163774   -0.2857738    0.0533711    0.4829632   -0.1313638    0.8657310
   0.0170539   -0.2880362    0.0527675    0.6920435   -0.0954627    0.7155156
   0.0163546   -0.2885005    0.0531611    0.6313703   -0.0561472    0.7734462
   0.0158235   -0.2875624    0.0536443    0.6545378   -0.0402995    0.7549544
   0.0160106   -0.2892850    0.0534871    0.6950796   -0.0343383    0.7181123
   0.0159958   -0.2950944    0.0530225    0.3165224   -0.0823706    0.9450019
   0.0161497   -0.2939185    0.0530329    0.4547352   -0.0781892    0.8871879
   0.0176265   -0.2930060    0.0518357    0.6775128   -0.0055963    0.7354897
   0.0157278   -0.2986089    0.0527623    0.0969426   -0.0635927    0.9932563
   0.0162801   -0.2979546    0.0527203    0.2547101   -0.0365913    0.9663249
   0.0160948   -0.2961774    0.0528947    0.3773939   -0.0726865    0.9231958
   0.0166279   -0.2961791    0.0526540    0.5123051   -0.0152421    0.8586682
   0.0154765   -0.2992496    0.0527395    0.0472936   -0.0668161    0.9966438
   0.0151815   -0.2998357    0.0526646   -0.2416760   -0.0933352    0.9658578
   0.0155453   -0.2997938    0.0527042    0.0162564   -0.0667828    0.9976351
   0.0149539   -0.3004649    0.0525590   -0.3600832   -0.0583706    0.9310924
   0.0148227   -0.2999085    0.0525400   -0.4236517   -0.0874818    0.9015909
   0.0145236   -0.3011228    0.0522330   -0.6249463   -0.0696569    0.7775539
   0.0171557   -0.2891920    0.0524831    0.6670739   -0.0786775    0.7408254
   0.0164947   -0.2950386    0.0527453    0.5736276   -0.0439620    0.8179357
   0.0171638   -0.2952456    0.0521331    0.6492557   -0.0112195    0.7604874
   0.0190939   -0.2994397    0.0500427    0.9599333    0.2041552    0.1919601
   0.0171019   -0.2982181    0.0523261    0.5544893    0.0204008    0.8319407
   0.0168307   -0.2960844    0.0524624    0.6530640    0.0312422    0.7566580
   0.0178769   -0.2989366    0.0517445    0.6483796    0.0683959    0.7582387
   0.0190953   -0.2999894    0.0504742    0.8991964    0.1756643    0.4007341
   0.0186185   -0.2994407    0.0511665    0.7696503    0.1232156    0.6264634
   0.0191499   -0.2994752    0.0493338    0.9770953    0.1990792   -0.0751813
   0.0191618   -0.2995296    0.0493391    0.9735393    0.2274776   -0.0217973
   0.0195913   -0.3011393    0.0493655    0.9697869    0.2429099    0.0225447
   0.0201050   -0.3033868    0.0491113    0.9728001    0.2127775   -0.0915737
   0.0192747   -0.3000107    0.0496959    0.9707449    0.2365559    0.0411776
   0.0147265   -0.3022420    0.0523060   -0.5765316   -0.0828907    0.8128595
   0.0138992   -0.3035778    0.0512974   -0.7519278   -0.0597061    0.6565362
   0.0131631   -0.3032119    0.0502931   -0.8473285   -0.0001259    0.5310691
   0.0149789   -0.3033577    0.0523495   -0.5292546   -0.1156043    0.8405505
   0.0130199   -0.3037744    0.0501283   -0.8850235    0.0151315    0.4653003
   0.0150338   -0.3071410    0.0468684   -0.6292707   -0.0907772   -0.7718665
   0.0132104   -0.3072890    0.0487875   -0.8562019   -0.1447634   -0.4959454
   0.0130168   -0.3060493    0.0488110   -0.8767695   -0.1268483   -0.4638801
   0.0144615   -0.3077670    0.0474142   -0.7150979   -0.1160855   -0.6893179
   0.0166615   -0.3069750    0.0457091   -0.3682107   -0.0412712   -0.9288259
   0.0154839   -0.3070968    0.0465134   -0.6377035   -0.0333684   -0.7695588
   0.0162603   -0.3075923    0.0459916   -0.5315689   -0.0901595   -0.8422029
   0.0153275   -0.3076877    0.0466496   -0.5591020   -0.0484931   -0.8276795
   0.0152628   -0.3071174    0.0466979    0.7459446   -0.0287727   -0.6653862
   0.0151059   -0.3075843    0.0468650   -0.5136167   -0.0784525   -0.8544256
   0.0152628   -0.3071174    0.0466979    0.9551446   -0.0080062   -0.2960316
   0.0129354   -0.3050286    0.0486857   -0.9273715   -0.1137505   -0.3564307
   0.0129409   -0.3043752    0.0499337   -0.9525199   -0.0046587    0.3044406
   0.0128222   -0.3050063    0.0493099   -0.9891092   -0.0368947    0.1424840
   0.0128788   -0.3058090    0.0491887   -0.9904250   -0.0677024   -0.1203112
   0.0202722   -0.3045417    0.0486899    0.9373037    0.2434622   -0.2493751
   0.0205892   -0.3062558    0.0482055    0.9288207    0.2523378   -0.2713258
   0.0211478   -0.3084927    0.0480161    0.8978678    0.2635603   -0.3526605
   0.0190722   -0.3089321    0.0457252    0.3684584    0.1711905   -0.9137463
   0.0211570   -0.3108776    0.0467103    0.7080959    0.2677800   -0.6533713
   0.0197167   -0.3094040    0.0459187    0.5267540    0.2110946   -0.8233889
   0.0212478   -0.3096637    0.0474759    0.8446256    0.2579995   -0.4690883
   0.0220229   -0.3124536    0.0471645    0.8265652    0.2926050   -0.4808038
   0.0170226   -0.3075071    0.0455961   -0.2386451   -0.0259760   -0.9707594
   0.0186389   -0.3090044    0.0455719    0.1145504    0.0923078   -0.9891196
   0.0174203   -0.3097542    0.0456251   -0.2359309   -0.0407235   -0.9709162
   0.0162000   -0.2822205    0.0555966    0.8938608   -0.3030012    0.3304591
   0.0161587   -0.2997097    0.0526093    0.1732930   -0.0594162    0.9830764
   0.0167016   -0.2990586    0.0525519    0.3068042   -0.0430056    0.9508005
   0.0151831   -0.2998482    0.0526639   -0.1998818   -0.0778514    0.9767223
   0.0159979   -0.3008886    0.0525866    0.1851640   -0.0535131    0.9812495
   0.0157350   -0.3013215    0.0526003    0.0520514   -0.0666890    0.9964152
   0.0150493   -0.3016062    0.0525335   -0.4072908   -0.0575386    0.9114842
   0.0152322   -0.3015750    0.0525877   -0.1265568   -0.0569813    0.9903214
   0.0198429   -0.3022333    0.0497464    0.9670106    0.2180449    0.1317078
   0.0196416   -0.3016678    0.0500474    0.9093017    0.2201130    0.3531582
   0.0195215   -0.3016632    0.0503930    0.9026418    0.1992120    0.3815132
   0.0177617   -0.3012425    0.0520287    0.5392869    0.0297781    0.8415955
   0.0168846   -0.3007709    0.0523915    0.3106984   -0.0353986    0.9498492
   0.0191019   -0.3011149    0.0509460    0.7583438    0.1502707    0.6342976
   0.0200279   -0.3033544    0.0498297    0.9605375    0.1692142    0.2207584
   0.0203606   -0.3045002    0.0491533    0.9702535    0.2274343    0.0829561
   0.0150113   -0.3021915    0.0524759   -0.4016185   -0.0980032    0.9105482
   0.0152049   -0.3027393    0.0524800   -0.2475126   -0.0612525    0.9669466
   0.0147787   -0.3035310    0.0521522   -0.6168047   -0.1230776    0.7774341
   0.0140956   -0.3046972    0.0513743   -0.7044096   -0.0561419    0.7075699
   0.0153262   -0.3032989    0.0524831   -0.1769632   -0.0932126    0.9797936
   0.0153610   -0.3038740    0.0524259   -0.3803221   -0.1443580    0.9135184
   0.0131182   -0.3049063    0.0502624   -0.8342365   -0.0152366    0.5511962
   0.0129070   -0.3061588    0.0491418   -0.9623250   -0.0979047   -0.2536636
   0.0130018   -0.3072838    0.0493667   -0.9730130   -0.1242243   -0.1944585
   0.0132087   -0.3078534    0.0490046   -0.8655744   -0.1663229   -0.4723533
   0.0137715   -0.3089536    0.0485302   -0.8034759   -0.1352050   -0.5797811
   0.0147415   -0.3094571    0.0474066   -0.8222357   -0.0620479   -0.5657549
   0.0149777   -0.3081917    0.0470393   -0.7798525   -0.0114106   -0.6258593
   0.0141688   -0.3094982    0.0481022   -0.8819967   -0.1428393   -0.4490866
   0.0168573   -0.3080993    0.0457187   -0.4407329   -0.0897260   -0.8931426
   0.0150485   -0.3088621    0.0469748   -0.6436965   -0.0654285   -0.7624788
   0.0159709   -0.3087696    0.0462998   -0.5267544   -0.0860208   -0.8456537
   0.0130344   -0.3055062    0.0500706   -0.9026094   -0.0263922    0.4296507
   0.0129967   -0.3066740    0.0499471   -0.9738085   -0.0515865    0.2214403
   0.0128945   -0.3061542    0.0492379   -0.9972700   -0.0730289   -0.0109257
   0.0207739   -0.3061885    0.0488621    0.9606773    0.2424679   -0.1353091
   0.0209988   -0.3073269    0.0485852    0.9613119    0.2562179   -0.1011520
   0.0216898   -0.3101458    0.0479864    0.9071097    0.3009545   -0.2942419
   0.0219304   -0.3102451    0.0492271    0.9440083    0.3295097   -0.0164805
   0.0194902   -0.3106115    0.0455693    0.3347956    0.1432760   -0.9313345
   0.0207538   -0.3109623    0.0462726    0.6257357    0.2652735   -0.7335427
   0.0211780   -0.3120580    0.0462161    0.6400006    0.2397446   -0.7300149
   0.0201886   -0.3110704    0.0458271    0.4948511    0.2036262   -0.8447833
   0.0223660   -0.3117440    0.0485516    0.9135893    0.2752120   -0.2993543
   0.0213431   -0.3126095    0.0462155    0.6703940    0.2622782   -0.6941052
   0.0223793   -0.3138962    0.0468643    0.7573323    0.3460025   -0.5538321
   0.0225336   -0.3122960    0.0485666    0.9150402    0.3154121   -0.2514290
   0.0226555   -0.3128748    0.0482370    0.8902372    0.3451933   -0.2971857
   0.0228631   -0.3146465    0.0470561    0.8164860    0.3667109   -0.4459526
   0.0233302   -0.3138806    0.0490440    0.8428764    0.4333213   -0.3190486
   0.0177936   -0.3102819    0.0455330   -0.1898605    0.0043467   -0.9818014
   0.0190774   -0.3106764    0.0454740    0.1088625    0.0667654   -0.9918122
   0.0171879   -0.3099605    0.0457440   -0.4299269   -0.0713805   -0.9000376
   0.0166888   -0.3013749    0.0524094    0.2011289   -0.0537129    0.9780910
   0.0164685   -0.3024566    0.0523753    0.1641911   -0.0377407    0.9857063
   0.0157157   -0.3026645    0.0524963    0.0647390   -0.0356421    0.9972655
   0.0151328   -0.3021704    0.0525167   -0.1936290   -0.0842766    0.9774483
   0.0197614   -0.3022232    0.0500884    0.9026696    0.1977427    0.3822111
   0.0198629   -0.3027847    0.0500989    0.9418677    0.1539298    0.2986485
   0.0198264   -0.3027854    0.0501885    0.8956363    0.1713881    0.4104410
   0.0194748   -0.3022291    0.0507023    0.8668775    0.1832908    0.4636032
   0.0173767   -0.3024435    0.0521846    0.3728756   -0.0070743    0.9278544
   0.0189827   -0.3016969    0.0511414    0.5657329    0.0874165    0.8199418
   0.0196293   -0.3039162    0.0510315    0.6759893    0.1687226    0.7173361
   0.0199484   -0.3039046    0.0504674    0.9206647    0.1826153    0.3450046
   0.0201092   -0.3044675    0.0503101    0.9409129    0.2048786    0.2696437
   0.0203677   -0.3055810    0.0503505    0.9516752    0.2286517    0.2050190
   0.0205253   -0.3061416    0.0502452    0.9492828    0.2580256    0.1796803
   0.0207114   -0.3067053    0.0500044    0.9524325    0.2533186    0.1694168
   0.0208947   -0.3067257    0.0492239    0.9673068    0.2239361    0.1190386
   0.0156643   -0.3032462    0.0525248    0.0373425   -0.0376310    0.9985937
   0.0149090   -0.3051185    0.0520043   -0.5512791   -0.0968167    0.8286844
   0.0145261   -0.3057725    0.0516504   -0.6193880   -0.0882469    0.7801096
   0.0134718   -0.3065605    0.0506792   -0.6874845   -0.0210601    0.7258936
   0.0160398   -0.3037754    0.0524340    0.1368917   -0.0603715    0.9887446
   0.0157165   -0.3043974    0.0524463   -0.0857791   -0.0781959    0.9932408
   0.0154870   -0.3049800    0.0523340   -0.3300345   -0.0861882    0.9400260
   0.0129976   -0.3072756    0.0495202   -0.9952324   -0.0963229    0.0153098
   0.0131408   -0.3084133    0.0494456   -0.9699789   -0.1583360   -0.1845823
   0.0134815   -0.3095347    0.0491504   -0.8871525   -0.1879755   -0.4214566
   0.0139865   -0.3095099    0.0483474   -0.8129373   -0.1505547   -0.5625534
   0.0148460   -0.3088797    0.0471870   -0.8524872   -0.0008451   -0.5227473
   0.0150183   -0.3100099    0.0471590   -0.7309042   -0.1085419   -0.6737935
   0.0146325   -0.3111768    0.0478509   -0.8175963   -0.1419473   -0.5580209
   0.0143620   -0.3105549    0.0481239   -0.9032098   -0.1821046   -0.3886516
   0.0143730   -0.3106211    0.0481246   -0.9670584   -0.1694028   -0.1900019
   0.0159142   -0.3099233    0.0464422   -0.5460403   -0.0461485   -0.8364869
   0.0157075   -0.3101055    0.0466065   -0.6068043   -0.0646291   -0.7922195
   0.0132405   -0.3076710    0.0503163   -0.8499907   -0.0150036    0.5265841
   0.0131100   -0.3083948    0.0498312   -0.9838042   -0.1049011    0.1453446
   0.0210284   -0.3072884    0.0491382    0.9732071    0.2148899    0.0817937
   0.0212208   -0.3084306    0.0496650    0.9530429    0.2797527    0.1159642
   0.0214856   -0.3089448    0.0492611    0.9326155    0.3309022    0.1439867
   0.0220560   -0.3106149    0.0488781    0.9458889    0.3185480   -0.0618179
   0.0222238   -0.3111655    0.0489122    0.9408731    0.3242433   -0.0981030
   0.0216687   -0.3100049    0.0503557    0.9344580    0.3335873    0.1245303
   0.0219667   -0.3105649    0.0499402    0.9336263    0.3465099    0.0909552
   0.0196919   -0.3111574    0.0455732    0.2654792    0.1059001   -0.9582828
   0.0201938   -0.3116515    0.0456854    0.3834921    0.1785117   -0.9061277
   0.0206047   -0.3127527    0.0456369    0.4240702    0.1799214   -0.8875769
   0.0226722   -0.3122196    0.0494782    0.9306021    0.3643085   -0.0354836
   0.0220709   -0.3139782    0.0463727    0.6744107    0.3189120   -0.6659319
   0.0210689   -0.3132523    0.0457981    0.5245383    0.1274719   -0.8417900
   0.0213779   -0.3134036    0.0459885    0.5561326    0.2105407   -0.8039833
   0.0233020   -0.3163516    0.0464133    0.7329067    0.3783969   -0.5653880
   0.0227709   -0.3128206    0.0488431    0.9067980    0.3771742   -0.1883002
   0.0232149   -0.3151745    0.0472857    0.7710317    0.4608372   -0.4394760
   0.0238621   -0.3149858    0.0485877    0.7765817    0.4938687   -0.3911709
   0.0231103   -0.3133139    0.0494135    0.8849803    0.4585866   -0.0806733
   0.0243562   -0.3154607    0.0490680    0.7481429    0.5705525   -0.3387508
   0.0186569   -0.3118972    0.0453815   -0.0421665    0.0148233   -0.9990006
   0.0182382   -0.3119518    0.0454828   -0.2948728   -0.0499097   -0.9542322
   0.0162229   -0.3104672    0.0462467   -0.5051295   -0.0385356   -0.8621828
   0.0169244   -0.3034623    0.0522856    0.1956343   -0.0219819    0.9804305
   0.0159748   -0.3033050    0.0524572    0.1959087   -0.0020310    0.9806200
   0.0199158   -0.3044659    0.0507998    0.8475526    0.2195047    0.4831897
   0.0181874   -0.3040689    0.0519515    0.3850398    0.0811477    0.9193255
   0.0196171   -0.3061987    0.0514781    0.4528088    0.1383626    0.8808064
   0.0202314   -0.3067013    0.0512330    0.5622393    0.2061047    0.8008794
   0.0204088   -0.3061261    0.0507588    0.9151916    0.2780925    0.2917001
   0.0207994   -0.3072265    0.0507217    0.9502739    0.2791343    0.1380708
   0.0151507   -0.3062332    0.0520544   -0.5318707   -0.0791392    0.8431195
   0.0141942   -0.3075729    0.0512718   -0.6478681   -0.0106157    0.7616786
   0.0143217   -0.3075480    0.0513838   -0.4891967    0.0091729    0.8721252
   0.0150831   -0.3074033    0.0519486   -0.5282782   -0.0168957    0.8489033
   0.0141103   -0.3081620    0.0512664   -0.6460600    0.0286803    0.7627476
   0.0143935   -0.3081107    0.0514377    0.2035215    0.0199740    0.9788667
   0.0158749   -0.3049542    0.0524056    0.0067235   -0.0350244    0.9993638
   0.0163626   -0.3039734    0.0523493    0.1510270   -0.0082414    0.9884953
   0.0160346   -0.3072380    0.0524022   -0.2611585   -0.0148409    0.9651818
   0.0132833   -0.3095182    0.0499054   -0.9873620   -0.1583151   -0.0072598
   0.0134275   -0.3100917    0.0495964   -0.9206435   -0.1924749   -0.3396601
   0.0156953   -0.3116679    0.0467132   -0.6298329   -0.0802408   -0.7725749
   0.0157764   -0.3145133    0.0471583   -0.7533650   -0.1376033   -0.6430447
   0.0155023   -0.3139605    0.0474093   -0.8612075   -0.1644948   -0.4808981
   0.0150092   -0.3122908    0.0476114   -0.7941233   -0.1533265   -0.5880979
   0.0145042   -0.3117482    0.0482437   -0.8462472   -0.1814838   -0.5009285
   0.0144343   -0.3111844    0.0481890   -0.8512652   -0.1515488   -0.5023749
   0.0139724   -0.3112058    0.0489435   -0.8562399   -0.1899475   -0.4803886
   0.0141413   -0.3111986    0.0486753   -0.9075286   -0.1807629   -0.3790997
   0.0134033   -0.3094624    0.0505247   -0.9170406   -0.0782369    0.3910441
   0.0134437   -0.3082968    0.0506462   -0.7713456    0.0237831    0.6359720
   0.0209870   -0.3078202    0.0499913    0.9579824    0.2738204    0.0853934
   0.0214900   -0.3094344    0.0507010    0.9044098    0.3541185    0.2379981
   0.0215147   -0.3099712    0.0512981    0.8415840    0.3891363    0.3745790
   0.0217769   -0.3105246    0.0510613    0.9122028    0.3488666    0.2148911
   0.0220460   -0.3110795    0.0507703    0.9141467    0.3669728    0.1722406
   0.0190697   -0.3124142    0.0453529    0.0341373    0.0484796   -0.9982406
   0.0202261   -0.3122331    0.0455849    0.2360871    0.1399482   -0.9616015
   0.0204568   -0.3133600    0.0454828    0.3191991    0.1296096   -0.9387829
   0.0193898   -0.3129460    0.0453377    0.1002440    0.0892611   -0.9909509
   0.0224662   -0.3121621    0.0509453    0.8832049    0.4000596    0.2447475
   0.0228654   -0.3127360    0.0500149    0.9202595    0.3788795    0.0978410
   0.0219721   -0.3142534    0.0461506    0.6154936    0.2986224   -0.7293780
   0.0237451   -0.3180357    0.0461046    0.6465553    0.2841846   -0.7079586
   0.0228647   -0.3164393    0.0459957    0.5994461    0.2883775   -0.7466611
   0.0213003   -0.3154209    0.0453505    0.3894079    0.2195541   -0.8945152
   0.0218148   -0.3154634    0.0455982    0.5050418    0.2476052   -0.8268158
   0.0236454   -0.3156619    0.0474636    0.7230729    0.4833934   -0.4934535
   0.0238874   -0.3168169    0.0468402    0.7184366    0.3261776   -0.6143753
   0.0242362   -0.3167391    0.0473094    0.7290635    0.4216129   -0.5391744
   0.0238881   -0.3152902    0.0482839    0.7454620    0.5305296   -0.4035156
   0.0242582   -0.3155123    0.0487917    0.7586389    0.5533025   -0.3439816
   0.0228879   -0.3132373    0.0512267    0.8553851    0.4239128    0.2976815
   0.0237593   -0.3143232    0.0502356    0.8131660    0.5734677    0.0994783
   0.0238870   -0.3145650    0.0495235    0.8014034    0.5764205   -0.1596622
   0.0245962   -0.3159395    0.0486721    0.6913611    0.5803312   -0.4303899
   0.0252789   -0.3164623    0.0490531    0.7102607    0.6030311   -0.3631572
   0.0251019   -0.3163915    0.0488014    0.6849787    0.5930050   -0.4232603
   0.0177703   -0.3136294    0.0456890   -0.3314163   -0.0429188   -0.9425079
   0.0168043   -0.3127026    0.0460323   -0.4487169   -0.0438767   -0.8925962
   0.0188880   -0.3135921    0.0453902   -0.1475866    0.0171689   -0.9889001
   0.0177106   -0.3064310    0.0521952    0.1754417    0.0100565    0.9844385
   0.0205951   -0.3072303    0.0511267    0.7269541    0.2617010    0.6348624
   0.0183083   -0.3063514    0.0520747    0.2561070    0.0630117    0.9645925
   0.0191987   -0.3079594    0.0519670    0.3217632    0.1004758    0.9414739
   0.0203815   -0.3072961    0.0513106    0.5329318    0.2364985    0.8124360
   0.0207672   -0.3072216    0.0508647    0.8931465    0.2998615    0.3352200
   0.0209602   -0.3077789    0.0507235    0.9522836    0.2791953    0.1233125
   0.0146268   -0.3080648    0.0516379   -0.5744551   -0.0396200    0.8175766
   0.0143935   -0.3081107    0.0514377    0.7461380   -0.0454788    0.6642362
   0.0157805   -0.3078569    0.0523098   -0.3716242   -0.0919115    0.9238223
   0.0155604   -0.3081802    0.0521486   -0.4827620   -0.0866482    0.8714545
   0.0144900   -0.3086704    0.0514770   -0.2599541   -0.0328397    0.9650624
   0.0136361   -0.3099882    0.0508210   -0.8022000   -0.0316238    0.5962173
   0.0138157   -0.3099486    0.0510524   -0.6783107   -0.0180199    0.7345542
   0.0143935   -0.3081107    0.0514377    0.7541551   -0.0308007    0.6559736
   0.0165823   -0.3070958    0.0524087    0.0367848    0.0145575    0.9992172
   0.0170075   -0.3076746    0.0523820    0.1457875    0.0172436    0.9891656
   0.0175207   -0.3070340    0.0522067    0.1647293    0.0423683    0.9854284
   0.0161613   -0.3077958    0.0524239   -0.0745741   -0.0408012    0.9963804
   0.0135957   -0.3111759    0.0503625   -0.9653951   -0.1591731    0.2065825
   0.0134899   -0.3100251    0.0505695   -0.9293671   -0.1083107    0.3529100
   0.0135922   -0.3112011    0.0499444   -0.9664062   -0.2132757   -0.1434310
   0.0141160   -0.3123211    0.0492397   -0.8886822   -0.2345326   -0.3940030
   0.0167342   -0.3138579    0.0461557   -0.5244616   -0.0713268   -0.8484413
   0.0164817   -0.3150263    0.0465224   -0.6883568   -0.1235168   -0.7147786
   0.0161796   -0.3156201    0.0469623   -0.7583397   -0.1480206   -0.6348313
   0.0157095   -0.3150835    0.0474355   -0.8938531   -0.1643824   -0.4171391
   0.0150450   -0.3134211    0.0479032   -0.8457753   -0.1814066   -0.5017528
   0.0156989   -0.3150218    0.0474359   -0.9188364   -0.1699780   -0.3561560
   0.0155222   -0.3150952    0.0476745   -0.8205196   -0.1585325   -0.5491950
   0.0150612   -0.3151096    0.0485470   -0.8831378   -0.1856581   -0.4308117
   0.0142480   -0.3117586    0.0486943   -0.9453784   -0.2210579   -0.2395685
   0.0143754   -0.3123126    0.0487472   -0.8813074   -0.2279497   -0.4139278
   0.0144294   -0.3125669    0.0487634   -0.8797784   -0.2136717   -0.4246581
   0.0143736   -0.3123134    0.0487524   -0.9270453   -0.2229769   -0.3014439
   0.0212850   -0.3088857    0.0507251    0.9421789    0.3024158    0.1443731
   0.0213112   -0.3099872    0.0515103    0.6823019    0.3193846    0.6576150
   0.0212159   -0.3089250    0.0511112    0.8629192    0.2850532    0.4172711
   0.0218525   -0.3110663    0.0514495    0.7696369    0.3470332    0.5359357
   0.0220780   -0.3116132    0.0514133    0.8438094    0.3341451    0.4199201
   0.0200414   -0.3145388    0.0452355    0.0481453    0.1000358   -0.9938183
   0.0208875   -0.3156210    0.0451959    0.1614907    0.1572699   -0.9742623
   0.0227296   -0.3127033    0.0508871    0.8898261    0.4057955    0.2086610
   0.0223050   -0.3127106    0.0517996    0.7654326    0.3614904    0.5323886
   0.0226857   -0.3128858    0.0512827    0.8245677    0.4025653    0.3975291
   0.0232588   -0.3181305    0.0457156    0.5235365    0.2372915   -0.8182923
   0.0246401   -0.3172451    0.0475057    0.7064365    0.3691513   -0.6038830
   0.0245628   -0.3184560    0.0467322    0.6981578    0.3051090   -0.6476760
   0.0245541   -0.3190491    0.0464964    0.6530239    0.0987295   -0.7508743
   0.0234598   -0.3186800    0.0456939    0.5610230    0.1630756   -0.8115784
   0.0218255   -0.3160455    0.0454658    0.4640385    0.2250739   -0.8567438
   0.0216107   -0.3178413    0.0449002    0.2692203    0.2324074   -0.9346161
   0.0240940   -0.3158654    0.0479237    0.7289158    0.4980426   -0.4697184
   0.0244936   -0.3165942    0.0478197    0.7368284    0.4274168   -0.5238309
   0.0234237   -0.3144817    0.0514723    0.7540753    0.4478432    0.4804236
   0.0226434   -0.3137994    0.0520370    0.7014156    0.3522567    0.6196219
   0.0237587   -0.3153852    0.0517515    0.6660320    0.4366388    0.6047710
   0.0244794   -0.3153739    0.0502199    0.7653236    0.5924550    0.2515488
   0.0249831   -0.3158849    0.0498042    0.7599597    0.6493135   -0.0292095
   0.0238901   -0.3148329    0.0510405    0.7791632    0.5498825    0.3008886
   0.0245243   -0.3153947    0.0497569    0.7367835    0.6485805   -0.1910323
   0.0248626   -0.3165893    0.0482900    0.6722924    0.4501549   -0.5876933
   0.0253128   -0.3169893    0.0484423    0.6698857    0.5006200   -0.5482999
   0.0255327   -0.3170452    0.0486671    0.7064029    0.5097624   -0.4910573
   0.0251161   -0.3161002    0.0494249    0.7044757    0.6539638   -0.2757632
   0.0261542   -0.3175084    0.0490725    0.6890683    0.5419730   -0.4810926
   0.0266248   -0.3186187    0.0486521    0.7146009    0.3998116   -0.5740176
   0.0195247   -0.3158199    0.0451709   -0.2282804    0.0820725   -0.9701300
   0.0202557   -0.3162977    0.0450688    0.0118991    0.1320888   -0.9911665
   0.0210598   -0.3083222    0.0510285    0.8311914    0.2826822    0.4787605
   0.0182187   -0.3075128    0.0521659    0.1670724    0.0579354    0.9842410
   0.0195843   -0.3084839    0.0518944    0.2752329    0.1195986    0.9539094
   0.0208769   -0.3083340    0.0512732    0.6970529    0.2850753    0.6579129
   0.0207959   -0.3089071    0.0515285    0.4224557    0.2217122    0.8788486
   0.0147427   -0.3086237    0.0516655   -0.4578161   -0.0218779    0.8887777
   0.0156351   -0.3084644    0.0521539   -0.4733038   -0.0650771    0.8784921
   0.0164355   -0.3083332    0.0523931   -0.1544193   -0.0589791    0.9862435
   0.0145239   -0.3086648    0.0514948   -0.5408499   -0.0143243    0.8409972
   0.0136643   -0.3101962    0.0508397   -0.8335255   -0.0745414    0.5474293
   0.0141145   -0.3104656    0.0513102   -0.5870934   -0.0101149    0.8094560
   0.0137997   -0.3111117    0.0509167   -0.8633422   -0.1206528    0.4899828
   0.0141674   -0.3121934    0.0512298   -0.7954580   -0.1044251    0.5969439
   0.0142167   -0.3116046    0.0513210   -0.6184040   -0.0330448    0.7851653
   0.0180045   -0.3086945    0.0522109    0.1452163    0.0418897    0.9885128
   0.0167715   -0.3082862    0.0523901    0.0635577   -0.0111272    0.9979161
   0.0135613   -0.3105909    0.0505809   -0.9166808   -0.1250808    0.3795408
   0.0137040   -0.3117339    0.0503951   -0.9668191   -0.2106614    0.1445082
   0.0137713   -0.3117108    0.0506142   -0.9144985   -0.1666415    0.3686774
   0.0140851   -0.3128748    0.0496902   -0.9157503   -0.2312095   -0.3285477
   0.0139825   -0.3128660    0.0500868   -0.9655310   -0.2542466   -0.0557549
   0.0181175   -0.3161375    0.0455726   -0.4437469   -0.0025735   -0.8961485
   0.0171999   -0.3165782    0.0461667   -0.6079712   -0.1169899   -0.7852926
   0.0162806   -0.3173205    0.0472062   -0.7416339   -0.1400301   -0.6560265
   0.0159995   -0.3167706    0.0474443   -0.8207177   -0.1538360   -0.5502335
   0.0157062   -0.3150831    0.0474418   -0.8300921   -0.1489045   -0.5373775
   0.0157674   -0.3156469    0.0475018   -0.8305260   -0.1513688   -0.5360169
   0.0153049   -0.3162280    0.0485412   -0.8889316   -0.1799832   -0.4211966
   0.0159388   -0.3173395    0.0477318   -0.8999500   -0.1695381   -0.4016800
   0.0146798   -0.3145510    0.0491624   -0.9192409   -0.2187147   -0.3273532
   0.0153926   -0.3167881    0.0486206   -0.9418037   -0.1837560   -0.2814950
   0.0211908   -0.3088751    0.0511168    0.7402196    0.2820264    0.6103574
   0.0212207   -0.3105635    0.0517501    0.4850643    0.3251662    0.8117756
   0.0216436   -0.3110792    0.0517368    0.6272471    0.3462653    0.6976112
   0.0219434   -0.3121784    0.0519118    0.5749982    0.4541179    0.6805542
   0.0219647   -0.3122535    0.0519249    0.6070738    0.3391109    0.7186551
   0.0221207   -0.3127223    0.0520424    0.5527708    0.3484379    0.7569911
   0.0228792   -0.3186787    0.0453423    0.5106643    0.2409791   -0.8253188
   0.0246875   -0.3166274    0.0480555    0.7202527    0.3837739   -0.5778872
   0.0254492   -0.3180210    0.0478576    0.6381775    0.3965466   -0.6599093
   0.0252790   -0.3187834    0.0474019    0.6592627    0.2725519   -0.7007768
   0.0244065   -0.3202271    0.0464375    0.5769737   -0.0982143   -0.8108362
   0.0238665   -0.3197516    0.0460487    0.5558135   -0.1061699   -0.8244994
   0.0227541   -0.3193881    0.0451924    0.5655668   -0.0936509   -0.8193679
   0.0252864   -0.3194790    0.0471739    0.6638480    0.1284694   -0.7367506
   0.0221165   -0.3189280    0.0447960    0.4851278    0.1736241   -0.8570331
   0.0224496   -0.3182797    0.0451789    0.4773159    0.2472420   -0.8432324
   0.0206313   -0.3174085    0.0448706   -0.0225562    0.1745307   -0.9843933
   0.0217630   -0.3188596    0.0446444    0.2948209    0.2018241   -0.9339956
   0.0207169   -0.3179794    0.0447497    0.0034992    0.2214384   -0.9751681
   0.0240830   -0.3152481    0.0512273    0.7250783    0.4750326    0.4986035
   0.0237591   -0.3148938    0.0513514    0.6508260    0.4107135    0.6385452
   0.0238999   -0.3164919    0.0522083    0.4941273    0.3448898    0.7980534
   0.0220321   -0.3132968    0.0522860    0.4480982    0.2416175    0.8607143
   0.0239651   -0.3153676    0.0515446    0.6548513    0.5061757    0.5612094
   0.0241834   -0.3159011    0.0517409    0.5700496    0.4501668    0.6873087
   0.0248717   -0.3157750    0.0501887    0.7199440    0.6886593    0.0861919
   0.0248064   -0.3164022    0.0515089    0.6845661    0.5475750    0.4811766
   0.0252935   -0.3166947    0.0511243    0.6645935    0.5490202    0.5068455
   0.0241737   -0.3153589    0.0511946    0.7835173    0.5226975    0.3359881
   0.0243924   -0.3158862    0.0514991    0.7500151    0.5560786    0.3581256
   0.0262913   -0.3174714    0.0493292    0.7228266    0.6279328   -0.2884825
   0.0257775   -0.3182005    0.0480421    0.6372186    0.3725982   -0.6746281
   0.0262117   -0.3187041    0.0482207    0.6675242    0.3550346   -0.6544935
   0.0266944   -0.3181159    0.0492091    0.8079333    0.4750367   -0.3486888
   0.0267844   -0.3185807    0.0488956    0.8103825    0.3810297   -0.4450803
   0.0269646   -0.3191322    0.0488861    0.8619171    0.2367662   -0.4483757
   0.0268158   -0.3197601    0.0483955    0.7330698    0.2051449   -0.6484784
   0.0184044   -0.3163124    0.0454399   -0.3773480    0.0930349   -0.9213865
   0.0192749   -0.3164343    0.0451572   -0.2106921    0.1246008   -0.9695790
   0.0195566   -0.3096303    0.0520835    0.2136627    0.1339232    0.9676843
   0.0208195   -0.3111807    0.0520326    0.1988887    0.1916364    0.9611029
   0.0210009   -0.3107851    0.0518846    0.2761868    0.2482359    0.9284933
   0.0147719   -0.3109244    0.0516948   -0.4748431   -0.0120682    0.8799877
   0.0155093   -0.3096395    0.0520823   -0.4143395   -0.0159914    0.9099819
   0.0157388   -0.3090235    0.0521891   -0.5612049   -0.0635531    0.8252333
   0.0160696   -0.3089679    0.0523323   -0.2839185   -0.0088521    0.9588076
   0.0158363   -0.3095858    0.0522079   -0.4726831   -0.0566854    0.8794074
   0.0165369   -0.3088960    0.0523958   -0.0407766   -0.0091852    0.9991261
   0.0147121   -0.3126643    0.0516803   -0.5340885   -0.0070480    0.8453992
   0.0142548   -0.3133466    0.0510333   -0.9436828   -0.1956549    0.2667993
   0.0140032   -0.3126680    0.0507225   -0.9392889   -0.2249058    0.2591403
   0.0148042   -0.3132250    0.0517221   -0.6314872    0.0102811    0.7753181
   0.0144693   -0.3138726    0.0513402   -0.8456503   -0.1104479    0.5221846
   0.0148572   -0.3114858    0.0517405   -0.4720310    0.0067408    0.8815562
   0.0170506   -0.3099748    0.0523828    0.0953394   -0.0027862    0.9954409
   0.0176271   -0.3098976    0.0522864    0.1204527    0.0228851    0.9924553
   0.0191010   -0.3102669    0.0521935    0.1343539    0.0884558    0.9869775
   0.0144525   -0.3145403    0.0498725   -0.9665812   -0.2464888   -0.0704552
   0.0184031   -0.3182732    0.0454592   -0.5661011   -0.0410109   -0.8233151
   0.0170767   -0.3178292    0.0464456   -0.6572215   -0.1237799   -0.7434638
   0.0163866   -0.3178820    0.0472225   -0.8450273   -0.1556853   -0.5115574
   0.0161450   -0.3184608    0.0477586   -0.9381530   -0.1755794   -0.2983971
