NORM_ASCII
1914 3824
3 116 179 117 
3 117 180 118 
3 181 180 117 
3 181 117 182 
3 179 182 117 
3 183 177 118 
3 180 183 118 
3 120 121 119 
3 121 120 123 
3 123 184 178 
3 185 123 124 
3 185 184 123 
3 186 187 124 
3 124 188 186 
3 187 189 124 
3 124 144 188 
3 189 185 124 
3 125 152 126 
3 177 152 125 
3 127 129 139 
3 136 190 127 
3 127 139 136 
3 132 127 190 
3 130 131 191 
3 130 191 192 
3 192 134 130 
3 131 132 193 
3 191 131 193 
3 193 132 190 
3 194 133 134 
3 195 151 133 
3 133 196 195 
3 196 133 194 
3 134 192 194 
3 139 135 136 
3 190 136 137 
3 138 197 137 
3 198 190 137 
3 137 197 198 
3 197 138 175 
3 199 140 148 
3 143 140 199 
3 145 141 200 
3 142 200 141 
3 201 200 142 
3 142 199 201 
3 199 142 143 
3 202 188 144 
3 202 144 145 
3 200 202 145 
3 151 149 146 
3 148 147 203 
3 147 150 204 
3 204 203 147 
3 205 199 148 
3 203 205 148 
3 206 204 150 
3 207 150 208 
3 207 206 150 
3 151 208 150 
3 195 208 151 
3 156 152 209 
3 209 152 177 
3 210 153 154 
3 165 153 210 
3 154 155 211 
3 210 154 212 
3 212 154 211 
3 213 155 156 
3 213 211 155 
3 156 209 213 
3 162 157 214 
3 214 157 159 
3 215 159 158 
3 158 216 215 
3 160 217 158 
3 217 216 158 
3 214 159 215 
3 217 160 166 
3 167 161 218 
3 218 161 163 
3 219 163 162 
3 214 220 162 
3 219 162 220 
3 218 163 219 
3 164 165 221 
3 222 166 164 
3 222 164 221 
3 221 165 210 
3 166 223 217 
3 223 166 222 
3 218 169 167 
3 173 168 224 
3 169 224 168 
3 218 225 169 
3 224 169 226 
3 169 225 226 
3 174 170 171 
3 174 171 172 
3 174 172 227 
3 173 228 172 
3 227 172 229 
3 172 228 229 
3 173 224 230 
3 228 173 230 
3 176 174 227 
3 176 231 175 
3 232 175 231 
3 175 232 233 
3 197 175 233 
3 227 231 176 
3 183 209 177 
3 234 178 184 
3 234 179 178 
3 179 234 235 
3 236 182 179 
3 236 179 235 
3 213 183 180 
3 180 237 212 
3 212 213 180 
3 237 180 238 
3 238 180 181 
3 238 181 182 
3 182 239 238 
3 239 182 236 
3 213 209 183 
3 184 240 234 
3 185 240 184 
3 240 185 189 
3 187 186 241 
3 186 188 242 
3 241 186 242 
3 243 187 241 
3 189 187 244 
3 244 187 243 
3 188 202 245 
3 246 242 188 
3 245 246 188 
3 247 189 244 
3 248 189 247 
3 248 240 189 
3 190 249 193 
3 250 251 190 
3 190 198 252 
3 190 253 250 
3 249 190 251 
3 190 252 253 
3 193 254 191 
3 255 256 191 
3 191 254 255 
3 256 257 191 
3 258 191 259 
3 192 191 258 
3 257 259 191 
3 258 194 192 
3 254 193 249 
3 260 196 194 
3 260 194 258 
3 195 261 208 
3 261 195 262 
3 196 262 195 
3 263 262 196 
3 264 196 260 
3 264 263 196 
3 198 197 233 
3 265 252 198 
3 198 233 265 
3 199 205 201 
3 266 202 200 
3 200 201 267 
3 267 266 200 
3 267 201 268 
3 268 201 205 
3 202 266 245 
3 268 205 203 
3 269 203 270 
3 269 268 203 
3 203 204 206 
3 270 203 206 
3 271 272 206 
3 270 206 272 
3 273 206 207 
3 206 273 271 
3 208 261 207 
3 207 274 273 
3 262 274 207 
3 262 207 261 
3 221 210 212 
3 212 211 213 
3 212 275 221 
3 275 212 237 
3 215 276 214 
3 276 220 214 
3 215 277 278 
3 215 279 277 
3 215 216 279 
3 215 278 276 
3 216 217 280 
3 280 279 216 
3 217 223 280 
3 281 225 218 
3 219 281 218 
3 282 283 219 
3 281 219 283 
3 219 220 282 
3 220 276 282 
3 221 284 222 
3 284 221 275 
3 223 222 284 
3 280 223 285 
3 284 285 223 
3 230 224 226 
3 286 225 281 
3 286 226 225 
3 226 286 228 
3 230 226 228 
3 227 229 287 
3 287 288 227 
3 288 231 227 
3 289 228 290 
3 228 291 290 
3 228 286 291 
3 229 228 289 
3 292 287 229 
3 292 229 289 
3 231 288 293 
3 232 231 293 
3 293 294 232 
3 233 232 294 
3 294 265 233 
3 240 295 234 
3 296 297 234 
3 297 235 234 
3 296 234 295 
3 298 235 297 
3 235 298 299 
3 299 300 235 
3 235 300 236 
3 236 300 239 
3 238 275 237 
3 301 275 238 
3 301 238 239 
3 302 285 239 
3 302 239 303 
3 303 239 300 
3 239 285 301 
3 304 240 248 
3 304 305 240 
3 240 305 295 
3 241 306 307 
3 308 241 242 
3 309 306 241 
3 310 309 241 
3 241 307 243 
3 241 308 310 
3 308 242 246 
3 311 312 243 
3 307 313 243 
3 243 312 244 
3 313 311 243 
3 312 247 244 
3 314 315 245 
3 245 315 246 
3 314 245 266 
3 308 246 315 
3 247 312 248 
3 248 311 316 
3 316 317 248 
3 318 304 248 
3 248 312 311 
3 317 318 248 
3 251 254 249 
3 250 319 251 
3 250 253 320 
3 319 250 321 
3 321 250 320 
3 251 322 323 
3 255 254 251 
3 251 323 255 
3 319 322 251 
3 252 265 324 
3 325 252 324 
3 325 253 252 
3 320 253 325 
3 256 255 323 
3 256 326 257 
3 256 323 326 
3 327 328 257 
3 257 329 330 
3 328 259 257 
3 327 257 330 
3 329 257 326 
3 259 328 258 
3 260 258 328 
3 331 260 332 
3 331 264 260 
3 333 334 260 
3 333 260 335 
3 334 332 260 
3 260 328 335 
3 336 262 337 
3 271 274 262 
3 262 336 271 
3 262 263 337 
3 337 263 338 
3 263 264 338 
3 339 338 264 
3 264 331 340 
3 340 341 264 
3 264 341 339 
3 294 342 265 
3 342 343 265 
3 324 265 343 
3 266 267 314 
3 314 267 269 
3 268 269 267 
3 344 314 269 
3 270 345 269 
3 269 346 344 
3 346 269 347 
3 347 269 345 
3 345 270 272 
3 272 271 336 
3 271 273 274 
3 272 336 348 
3 348 345 272 
3 275 301 284 
3 276 278 349 
3 350 282 276 
3 276 349 350 
3 351 278 277 
3 351 277 352 
3 277 279 352 
3 351 349 278 
3 280 352 279 
3 280 302 352 
3 302 280 285 
3 281 283 353 
3 281 353 286 
3 283 282 354 
3 355 354 282 
3 282 350 355 
3 356 283 357 
3 356 353 283 
3 354 357 283 
3 284 301 285 
3 353 291 286 
3 287 292 358 
3 287 358 293 
3 293 288 287 
3 290 359 289 
3 360 361 289 
3 289 359 360 
3 292 289 361 
3 290 291 362 
3 362 359 290 
3 291 363 362 
3 363 291 353 
3 358 292 361 
3 364 342 293 
3 293 358 364 
3 342 294 293 
3 295 365 296 
3 305 365 295 
3 296 365 297 
3 365 298 297 
3 298 365 366 
3 367 299 298 
3 367 298 366 
3 303 300 299 
3 303 299 367 
3 302 368 352 
3 368 302 303 
3 303 369 370 
3 370 368 303 
3 369 303 367 
3 305 304 371 
3 304 318 372 
3 372 371 304 
3 366 365 305 
3 366 305 371 
3 307 306 373 
3 309 374 306 
3 375 373 306 
3 375 306 374 
3 307 373 313 
3 315 344 308 
3 308 344 310 
3 309 376 374 
3 377 309 310 
3 309 377 376 
3 310 346 377 
3 346 310 344 
3 311 313 316 
3 378 316 313 
3 313 379 378 
3 379 313 373 
3 315 314 344 
3 316 380 317 
3 380 316 378 
3 372 317 380 
3 372 318 317 
3 321 381 319 
3 382 322 319 
3 319 381 383 
3 383 382 319 
3 384 320 385 
3 320 325 386 
3 386 385 320 
3 387 321 320 
3 320 384 387 
3 388 321 387 
3 388 381 321 
3 322 389 323 
3 322 382 389 
3 390 326 323 
3 323 391 390 
3 391 323 389 
3 324 343 392 
3 324 393 325 
3 324 392 393 
3 325 393 386 
3 394 329 326 
3 395 326 390 
3 326 395 394 
3 327 335 328 
3 396 327 330 
3 335 327 396 
3 330 329 394 
3 396 330 397 
3 394 397 330 
3 334 331 332 
3 340 331 334 
3 398 334 333 
3 335 399 333 
3 399 400 333 
3 398 333 400 
3 334 341 340 
3 334 401 402 
3 401 334 398 
3 402 341 334 
3 399 335 403 
3 396 403 335 
3 337 348 336 
3 338 404 337 
3 404 348 337 
3 404 338 339 
3 405 404 339 
3 406 339 341 
3 405 339 406 
3 341 402 407 
3 407 406 341 
3 364 408 342 
3 408 343 342 
3 409 410 343 
3 408 411 343 
3 343 411 409 
3 392 343 410 
3 412 413 345 
3 413 347 345 
3 345 348 412 
3 346 414 377 
3 414 346 415 
3 415 346 347 
3 347 413 415 
3 412 348 404 
3 416 349 351 
3 417 350 349 
3 416 417 349 
3 355 350 417 
3 352 370 351 
3 416 351 418 
3 351 370 418 
3 352 368 370 
3 419 363 353 
3 353 356 419 
3 357 354 420 
3 420 354 355 
3 355 421 420 
3 417 422 355 
3 422 421 355 
3 356 357 423 
3 423 424 356 
3 424 419 356 
3 423 357 420 
3 358 361 425 
3 411 358 425 
3 411 364 358 
3 359 426 360 
3 362 426 359 
3 361 360 425 
3 427 425 360 
3 427 360 426 
3 362 363 428 
3 362 429 426 
3 428 429 362 
3 430 428 363 
3 430 363 419 
3 411 408 364 
3 431 366 432 
3 371 432 366 
3 367 366 431 
3 367 431 433 
3 433 434 367 
3 434 369 367 
3 370 369 418 
3 434 418 369 
3 371 372 432 
3 432 372 380 
3 379 373 375 
3 435 374 436 
3 374 376 437 
3 435 375 374 
3 437 438 374 
3 436 374 438 
3 375 439 440 
3 441 375 435 
3 375 441 439 
3 375 440 442 
3 442 379 375 
3 443 376 414 
3 414 376 377 
3 443 437 376 
3 379 444 378 
3 445 378 444 
3 380 378 445 
3 442 444 379 
3 432 380 446 
3 446 380 447 
3 445 447 380 
3 448 383 381 
3 448 381 388 
3 449 389 382 
3 382 383 449 
3 449 383 448 
3 385 450 384 
3 387 384 451 
3 452 384 450 
3 451 384 452 
3 450 385 453 
3 386 453 385 
3 453 386 454 
3 393 454 386 
3 455 388 387 
3 455 387 451 
3 388 456 448 
3 457 388 458 
3 457 456 388 
3 458 388 455 
3 389 459 391 
3 459 389 460 
3 389 449 460 
3 390 391 395 
3 395 391 461 
3 461 391 459 
3 410 462 392 
3 462 463 392 
3 393 392 463 
3 454 393 464 
3 463 464 393 
3 395 465 394 
3 397 394 465 
3 465 395 461 
3 466 403 396 
3 397 467 396 
3 467 466 396 
3 468 397 465 
3 468 467 397 
3 469 398 400 
3 401 398 469 
3 403 400 399 
3 470 471 400 
3 400 471 469 
3 470 400 403 
3 472 402 401 
3 469 471 401 
3 473 401 471 
3 472 401 473 
3 407 402 474 
3 475 474 402 
3 475 402 472 
3 403 466 476 
3 403 476 477 
3 470 403 477 
3 412 404 405 
3 478 412 405 
3 479 405 406 
3 479 478 405 
3 479 406 474 
3 474 406 407 
3 480 410 409 
3 425 481 409 
3 482 409 481 
3 409 411 425 
3 409 482 480 
3 483 410 484 
3 480 484 410 
3 462 410 483 
3 485 413 412 
3 485 412 478 
3 486 415 413 
3 413 487 486 
3 488 413 485 
3 488 487 413 
3 415 443 414 
3 486 443 415 
3 416 489 490 
3 490 417 416 
3 416 418 489 
3 417 490 491 
3 422 417 491 
3 492 489 418 
3 418 434 492 
3 419 424 430 
3 421 493 420 
3 420 494 495 
3 420 495 423 
3 494 420 493 
3 421 496 493 
3 421 422 497 
3 496 421 497 
3 497 422 491 
3 495 430 423 
3 423 430 424 
3 427 498 425 
3 425 498 499 
3 425 499 481 
3 429 500 426 
3 427 426 500 
3 501 498 427 
3 427 500 501 
3 502 428 430 
3 502 429 428 
3 503 429 502 
3 429 503 500 
3 430 495 502 
3 504 431 432 
3 433 431 504 
3 432 505 504 
3 446 505 432 
3 506 492 433 
3 492 434 433 
3 506 433 504 
3 436 507 435 
3 441 435 507 
3 436 438 508 
3 508 509 436 
3 507 436 510 
3 510 436 509 
3 511 437 443 
3 511 438 437 
3 512 438 511 
3 508 438 512 
3 440 439 513 
3 514 513 439 
3 439 441 515 
3 515 514 439 
3 440 444 442 
3 516 444 440 
3 440 513 516 
3 517 441 518 
3 441 507 518 
3 517 515 441 
3 443 486 511 
3 445 444 516 
3 445 516 447 
3 505 446 447 
3 519 520 447 
3 447 520 521 
3 447 521 522 
3 447 516 519 
3 522 505 447 
3 448 460 449 
3 448 523 460 
3 524 448 456 
3 523 448 524 
3 525 450 453 
3 452 450 526 
3 450 527 526 
3 525 527 450 
3 451 452 455 
3 452 528 529 
3 452 458 455 
3 529 458 452 
3 526 530 452 
3 452 530 528 
3 454 464 453 
3 453 531 525 
3 453 464 532 
3 532 533 453 
3 533 531 453 
3 457 524 456 
3 534 457 458 
3 535 524 457 
3 457 536 535 
3 537 538 457 
3 539 536 457 
3 457 534 537 
3 539 457 538 
3 540 458 529 
3 534 458 540 
3 523 461 459 
3 460 523 459 
3 541 465 461 
3 542 541 461 
3 461 523 542 
3 462 483 543 
3 544 463 462 
3 543 544 462 
3 545 463 544 
3 464 463 545 
3 464 545 532 
3 468 465 541 
3 466 467 476 
3 468 476 467 
3 546 468 547 
3 477 476 468 
3 477 468 548 
3 548 468 546 
3 541 549 468 
3 550 468 549 
3 468 551 547 
3 550 551 468 
3 471 470 473 
3 552 473 470 
3 477 548 470 
3 552 470 548 
3 553 475 472 
3 472 473 552 
3 552 554 472 
3 472 555 553 
3 554 555 472 
3 474 556 479 
3 475 556 474 
3 557 556 475 
3 557 475 553 
3 478 558 559 
3 559 560 478 
3 560 485 478 
3 478 479 558 
3 561 558 479 
3 556 561 479 
3 484 480 562 
3 563 480 482 
3 563 562 480 
3 564 482 481 
3 481 565 564 
3 481 499 566 
3 565 481 566 
3 563 482 567 
3 482 564 567 
3 484 568 483 
3 569 483 568 
3 543 483 569 
3 484 562 568 
3 485 570 488 
3 485 560 570 
3 511 486 571 
3 572 571 486 
3 486 487 572 
3 573 487 574 
3 572 487 573 
3 487 488 574 
3 488 570 575 
3 574 488 575 
3 576 490 489 
3 577 576 489 
3 489 492 577 
3 491 490 576 
3 497 491 578 
3 576 579 491 
3 578 491 579 
3 492 579 577 
3 492 506 580 
3 579 492 580 
3 581 582 493 
3 581 493 496 
3 493 582 494 
3 495 494 503 
3 494 582 583 
3 583 503 494 
3 503 502 495 
3 496 497 584 
3 584 581 496 
3 585 584 497 
3 497 578 585 
3 586 499 498 
3 586 498 501 
3 566 499 586 
3 583 500 503 
3 501 500 583 
3 587 501 583 
3 588 501 587 
3 501 588 589 
3 586 501 589 
3 504 505 590 
3 506 504 590 
3 591 590 505 
3 522 591 505 
3 592 506 590 
3 580 506 592 
3 518 507 510 
3 509 508 593 
3 508 512 593 
3 510 509 594 
3 594 509 593 
3 573 518 510 
3 510 594 573 
3 511 571 512 
3 512 571 595 
3 593 512 595 
3 596 513 514 
3 516 513 596 
3 596 514 597 
3 514 515 597 
3 515 598 597 
3 515 517 598 
3 596 519 516 
3 599 517 518 
3 598 517 599 
3 573 599 518 
3 519 596 520 
3 520 600 521 
3 520 596 601 
3 520 601 602 
3 600 520 602 
3 521 591 522 
3 521 600 603 
3 521 603 591 
3 604 523 524 
3 542 523 605 
3 523 604 605 
3 604 524 535 
3 525 606 527 
3 531 606 525 
3 607 526 527 
3 608 526 607 
3 608 530 526 
3 527 606 607 
3 609 529 528 
3 528 530 610 
3 528 610 609 
3 529 611 540 
3 612 529 609 
3 611 529 612 
3 613 530 608 
3 614 610 530 
3 530 613 614 
3 533 615 531 
3 616 531 615 
3 616 606 531 
3 617 618 532 
3 532 545 617 
3 533 532 618 
3 615 533 618 
3 619 537 534 
3 534 540 620 
3 620 619 534 
3 535 621 604 
3 621 535 536 
3 621 536 539 
3 537 619 538 
3 538 622 539 
3 538 619 623 
3 622 538 624 
3 624 538 625 
3 625 538 623 
3 622 621 539 
3 626 540 611 
3 540 626 620 
3 542 549 541 
3 605 549 542 
3 544 543 545 
3 543 569 545 
3 545 569 617 
3 547 627 546 
3 627 548 546 
3 628 547 629 
3 547 628 627 
3 551 629 547 
3 630 552 548 
3 630 548 627 
3 631 549 605 
3 550 549 632 
3 549 631 633 
3 632 549 633 
3 550 632 634 
3 634 551 550 
3 629 551 635 
3 634 635 551 
3 636 554 552 
3 636 552 630 
3 637 557 553 
3 553 638 639 
3 555 638 553 
3 553 640 637 
3 640 553 639 
3 555 554 638 
3 638 554 636 
3 641 561 556 
3 641 556 642 
3 643 642 556 
3 556 557 643 
3 637 643 557 
3 644 559 558 
3 561 644 558 
3 559 644 645 
3 646 559 647 
3 648 559 646 
3 560 559 648 
3 647 559 645 
3 570 560 648 
3 561 641 649 
3 645 644 561 
3 561 649 650 
3 651 645 561 
3 650 651 561 
3 652 568 562 
3 562 563 652 
3 563 653 654 
3 654 652 563 
3 653 563 567 
3 653 564 565 
3 567 564 653 
3 565 566 655 
3 655 653 565 
3 566 586 655 
3 568 617 569 
3 656 568 652 
3 656 657 568 
3 568 657 618 
3 618 617 568 
3 658 575 570 
3 570 648 659 
3 659 658 570 
3 572 595 571 
3 593 572 573 
3 595 572 593 
3 594 593 573 
3 573 574 660 
3 660 599 573 
3 661 574 575 
3 660 574 661 
3 575 662 661 
3 662 575 663 
3 658 663 575 
3 576 577 579 
3 664 578 665 
3 578 666 585 
3 578 664 666 
3 578 579 665 
3 580 665 579 
3 667 668 580 
3 580 668 669 
3 665 580 669 
3 580 592 667 
3 582 581 584 
3 584 587 582 
3 583 582 587 
3 587 584 585 
3 587 585 666 
3 589 655 586 
3 670 671 587 
3 587 672 588 
3 672 587 673 
3 671 673 587 
3 587 666 670 
3 674 588 675 
3 675 588 672 
3 655 589 588 
3 588 674 676 
3 588 676 655 
3 590 591 592 
3 677 592 591 
3 677 591 603 
3 677 667 592 
3 601 596 597 
3 597 598 601 
3 601 598 678 
3 598 599 678 
3 678 599 660 
3 603 600 677 
3 679 600 680 
3 600 602 681 
3 600 681 680 
3 677 600 679 
3 682 602 601 
3 682 601 678 
3 602 682 683 
3 683 681 602 
3 605 604 684 
3 684 604 621 
3 605 684 631 
3 616 607 606 
3 685 607 616 
3 685 608 607 
3 686 608 685 
3 686 613 608 
3 687 609 688 
3 609 687 612 
3 609 610 688 
3 688 610 614 
3 689 626 611 
3 611 690 689 
3 611 691 690 
3 691 611 612 
3 692 693 612 
3 694 612 687 
3 692 612 694 
3 691 612 693 
3 695 613 686 
3 614 613 695 
3 614 696 688 
3 614 695 696 
3 616 615 697 
3 618 698 615 
3 697 615 698 
3 697 699 616 
3 699 685 616 
3 618 657 698 
3 620 700 619 
3 623 619 700 
3 700 620 626 
3 622 684 621 
3 701 684 622 
3 702 701 622 
3 702 622 703 
3 622 624 704 
3 703 622 704 
3 700 689 623 
3 689 690 623 
3 625 623 705 
3 623 690 705 
3 625 704 624 
3 704 625 706 
3 707 625 705 
3 706 625 707 
3 700 626 689 
3 708 627 628 
3 709 630 627 
3 709 627 708 
3 628 629 710 
3 710 711 628 
3 628 712 708 
3 712 628 711 
3 629 635 710 
3 630 713 636 
3 713 630 714 
3 630 709 714 
3 633 631 684 
3 632 715 634 
3 715 632 633 
3 715 633 701 
3 633 684 701 
3 634 710 635 
3 710 634 716 
3 717 634 715 
3 716 634 717 
3 713 638 636 
3 643 637 718 
3 637 719 718 
3 720 719 637 
3 640 720 637 
3 721 639 638 
3 721 638 713 
3 639 722 640 
3 722 639 723 
3 639 721 724 
3 724 723 639 
3 640 725 720 
3 640 722 725 
3 641 642 726 
3 649 641 726 
3 726 642 643 
3 727 726 643 
3 727 643 718 
3 647 645 728 
3 728 645 729 
3 729 645 651 
3 730 646 647 
3 731 646 730 
3 648 646 731 
3 730 647 732 
3 728 732 647 
3 731 659 648 
3 733 734 649 
3 726 735 649 
3 649 735 733 
3 734 650 649 
3 736 650 737 
3 734 737 650 
3 736 651 650 
3 651 738 729 
3 736 738 651 
3 656 652 739 
3 739 652 654 
3 740 654 653 
3 653 655 676 
3 741 742 653 
3 676 741 653 
3 653 743 740 
3 653 742 743 
3 739 654 740 
3 739 744 656 
3 656 745 657 
3 745 656 744 
3 698 657 745 
3 746 663 658 
3 658 747 746 
3 658 659 747 
3 748 659 731 
3 747 659 749 
3 749 659 748 
3 661 662 660 
3 750 660 662 
3 750 683 660 
3 683 678 660 
3 750 662 751 
3 751 662 663 
3 751 663 746 
3 669 664 665 
3 752 670 664 
3 666 664 670 
3 669 752 664 
3 667 753 668 
3 677 753 667 
3 668 753 754 
3 752 669 668 
3 668 754 752 
3 670 755 671 
3 756 670 752 
3 756 755 670 
3 671 755 673 
3 672 673 757 
3 757 675 672 
3 757 673 758 
3 758 673 755 
3 674 675 759 
3 759 760 674 
3 761 674 760 
3 674 761 676 
3 675 757 762 
3 763 675 762 
3 759 675 763 
3 676 761 741 
3 753 677 764 
3 679 764 677 
3 682 678 683 
3 680 765 679 
3 764 679 765 
3 680 766 765 
3 681 767 680 
3 768 766 680 
3 680 767 769 
3 768 680 769 
3 770 681 683 
3 771 767 681 
3 771 681 770 
3 750 770 683 
3 685 699 772 
3 773 685 772 
3 685 773 686 
3 773 695 686 
3 687 688 774 
3 775 694 687 
3 775 687 774 
3 688 696 776 
3 774 688 776 
3 690 691 777 
3 705 690 777 
3 693 777 691 
3 693 692 778 
3 778 692 779 
3 694 779 692 
3 777 693 778 
3 779 694 780 
3 694 775 780 
3 696 695 781 
3 695 773 781 
3 696 781 782 
3 776 696 782 
3 697 698 783 
3 783 699 697 
3 745 783 698 
3 783 772 699 
3 701 784 785 
3 701 702 784 
3 715 701 785 
3 784 702 703 
3 786 784 703 
3 786 703 704 
3 787 704 706 
3 704 787 788 
3 786 704 788 
3 705 777 789 
3 707 705 789 
3 706 707 790 
3 787 706 790 
3 790 707 789 
3 791 708 792 
3 708 712 792 
3 793 708 791 
3 708 714 709 
3 714 708 793 
3 716 711 710 
3 711 794 712 
3 716 795 711 
3 711 796 794 
3 796 711 795 
3 794 792 712 
3 713 724 721 
3 713 714 724 
3 724 714 797 
3 793 797 714 
3 717 715 785 
3 795 716 717 
3 798 717 785 
3 795 717 799 
3 799 717 800 
3 717 798 800 
3 718 719 727 
3 727 719 801 
3 719 802 803 
3 803 801 719 
3 802 719 720 
3 720 804 802 
3 720 725 805 
3 720 805 804 
3 725 722 723 
3 806 723 724 
3 807 723 806 
3 725 723 807 
3 724 797 806 
3 807 805 725 
3 726 727 735 
3 801 808 727 
3 735 727 808 
3 732 728 738 
3 729 738 728 
3 809 730 732 
3 749 748 730 
3 749 730 809 
3 748 731 730 
3 738 810 732 
3 810 809 732 
3 808 734 733 
3 733 735 808 
3 808 811 734 
3 811 737 734 
3 737 812 736 
3 738 736 812 
3 813 812 737 
3 737 814 813 
3 737 811 815 
3 815 814 737 
3 812 810 738 
3 816 817 739 
3 816 739 740 
3 818 819 739 
3 739 817 820 
3 739 820 818 
3 739 821 744 
3 821 739 819 
3 743 822 740 
3 740 822 816 
3 741 823 742 
3 761 824 741 
3 824 823 741 
3 743 742 823 
3 743 823 825 
3 743 825 826 
3 826 822 743 
3 744 821 745 
3 745 821 827 
3 783 745 828 
3 827 828 745 
3 746 829 830 
3 747 829 746 
3 746 830 751 
3 829 747 749 
3 829 749 831 
3 831 749 832 
3 809 832 749 
3 751 833 750 
3 833 770 750 
3 751 830 833 
3 752 834 756 
3 834 752 835 
3 835 752 754 
3 754 753 836 
3 836 753 837 
3 837 753 764 
3 835 754 838 
3 836 838 754 
3 758 755 756 
3 756 834 758 
3 757 758 762 
3 758 839 762 
3 834 839 758 
3 763 840 759 
3 759 841 842 
3 760 759 842 
3 841 759 840 
3 760 843 761 
3 843 760 842 
3 824 761 843 
3 762 839 844 
3 763 762 845 
3 762 844 845 
3 846 847 763 
3 763 845 846 
3 763 847 840 
3 848 764 849 
3 764 848 837 
3 765 849 764 
3 849 765 766 
3 768 849 766 
3 767 771 850 
3 767 850 851 
3 851 769 767 
3 852 768 769 
3 768 853 849 
3 768 852 853 
3 769 851 852 
3 770 833 771 
3 850 771 854 
3 833 854 771 
3 772 783 828 
3 855 856 772 
3 772 828 827 
3 772 856 773 
3 855 772 857 
3 772 827 857 
3 781 773 856 
3 774 858 775 
3 776 859 774 
3 774 859 860 
3 774 860 861 
3 862 858 774 
3 861 862 774 
3 858 780 775 
3 776 782 863 
3 776 864 859 
3 864 776 863 
3 778 865 777 
3 789 777 865 
3 778 779 866 
3 867 778 866 
3 867 865 778 
3 866 779 780 
3 867 780 858 
3 866 780 867 
3 781 856 782 
3 782 868 869 
3 863 782 870 
3 782 856 868 
3 869 870 782 
3 785 784 871 
3 871 784 786 
3 785 872 798 
3 785 873 872 
3 873 785 871 
3 874 786 875 
3 786 874 876 
3 786 877 871 
3 876 877 786 
3 786 788 875 
3 878 788 787 
3 878 787 790 
3 879 875 788 
3 788 878 880 
3 788 880 879 
3 789 878 790 
3 878 789 865 
3 791 792 794 
3 794 881 791 
3 793 791 882 
3 882 791 883 
3 791 881 883 
3 793 884 885 
3 882 884 793 
3 885 797 793 
3 886 794 796 
3 887 794 886 
3 888 794 887 
3 794 888 881 
3 796 795 799 
3 796 799 889 
3 886 796 889 
3 797 885 806 
3 800 798 872 
3 890 891 799 
3 800 890 799 
3 892 893 799 
3 799 891 892 
3 893 889 799 
3 872 890 800 
3 894 808 801 
3 895 894 801 
3 803 895 801 
3 896 803 802 
3 804 897 802 
3 802 897 898 
3 898 896 802 
3 896 895 803 
3 899 804 807 
3 804 805 807 
3 899 897 804 
3 807 806 885 
3 807 900 899 
3 901 807 885 
3 807 901 900 
3 902 811 808 
3 903 902 808 
3 904 903 808 
3 904 808 894 
3 905 809 810 
3 809 905 831 
3 831 832 809 
3 906 810 812 
3 906 905 810 
3 907 843 811 
3 811 902 817 
3 811 817 816 
3 843 815 811 
3 816 907 811 
3 812 813 906 
3 813 908 909 
3 813 909 906 
3 814 908 813 
3 814 815 910 
3 840 908 814 
3 814 910 840 
3 815 841 910 
3 842 841 815 
3 842 815 843 
3 822 911 816 
3 911 907 816 
3 817 912 820 
3 902 903 817 
3 817 903 912 
3 819 818 913 
3 914 915 818 
3 818 820 914 
3 916 818 915 
3 916 913 818 
3 819 917 821 
3 918 917 819 
3 918 819 913 
3 914 820 919 
3 820 912 919 
3 821 920 827 
3 920 821 917 
3 911 822 826 
3 824 825 823 
3 825 824 911 
3 911 824 843 
3 826 825 911 
3 857 827 920 
3 829 921 830 
3 921 829 831 
3 833 830 921 
3 922 831 905 
3 921 831 922 
3 921 854 833 
3 839 834 835 
3 923 844 835 
3 835 924 923 
3 844 839 835 
3 924 835 838 
3 837 838 836 
3 838 837 848 
3 838 925 924 
3 838 848 925 
3 840 847 926 
3 909 840 926 
3 909 908 840 
3 841 840 910 
3 843 907 911 
3 923 845 844 
3 845 923 846 
3 847 846 924 
3 846 923 924 
3 847 924 927 
3 847 927 926 
3 925 848 849 
3 909 849 853 
3 849 927 925 
3 927 849 909 
3 850 854 922 
3 851 850 906 
3 850 922 906 
3 852 851 906 
3 852 906 909 
3 909 853 852 
3 921 922 854 
3 856 855 928 
3 855 929 928 
3 855 857 929 
3 868 856 928 
3 929 857 920 
3 930 858 862 
3 858 930 867 
3 859 864 931 
3 931 860 859 
3 861 860 932 
3 932 860 931 
3 862 861 930 
3 861 932 930 
3 863 870 933 
3 933 934 863 
3 864 863 934 
3 935 936 864 
3 864 934 935 
3 931 864 936 
3 937 865 867 
3 938 865 937 
3 865 938 878 
3 867 939 937 
3 867 940 941 
3 867 930 940 
3 941 942 867 
3 939 867 943 
3 867 944 943 
3 944 867 942 
3 928 869 868 
3 869 928 945 
3 946 870 869 
3 869 945 946 
3 947 870 946 
3 947 933 870 
3 871 877 873 
3 872 877 948 
3 872 873 877 
3 891 890 872 
3 872 948 891 
3 874 875 949 
3 876 874 950 
3 950 874 949 
3 949 875 879 
3 950 877 876 
3 948 877 950 
3 878 938 951 
3 880 878 951 
3 879 880 952 
3 949 879 952 
3 953 954 880 
3 955 956 880 
3 880 951 953 
3 952 880 956 
3 880 954 955 
3 881 888 957 
3 883 881 957 
3 882 958 884 
3 959 958 882 
3 882 960 959 
3 960 882 883 
3 883 961 960 
3 961 883 957 
3 885 884 962 
3 958 962 884 
3 962 901 885 
3 963 887 886 
3 964 963 886 
3 964 886 965 
3 886 889 965 
3 963 888 887 
3 957 888 966 
3 888 963 966 
3 965 889 893 
3 892 891 948 
3 892 967 893 
3 968 967 892 
3 948 968 892 
3 893 969 965 
3 969 893 970 
3 970 893 967 
3 894 971 904 
3 972 919 894 
3 971 894 919 
3 894 973 974 
3 973 894 895 
3 894 974 972 
3 895 975 973 
3 975 895 896 
3 896 898 976 
3 975 896 977 
3 896 976 977 
3 897 899 978 
3 897 978 979 
3 979 898 897 
3 898 979 976 
3 978 899 980 
3 899 900 980 
3 900 901 962 
3 981 980 900 
3 900 962 981 
3 912 903 971 
3 903 904 971 
3 905 906 922 
3 909 926 927 
3 919 912 971 
3 913 982 918 
3 913 916 982 
3 919 915 914 
3 919 983 915 
3 984 915 983 
3 916 915 984 
3 985 916 984 
3 982 916 985 
3 986 920 917 
3 917 918 986 
3 987 918 982 
3 987 988 918 
3 989 986 918 
3 989 918 988 
3 983 919 972 
3 929 920 986 
3 927 924 925 
3 990 928 929 
3 990 945 928 
3 929 986 991 
3 991 990 929 
3 930 932 940 
3 931 936 992 
3 992 993 931 
3 932 931 994 
3 994 931 993 
3 940 932 994 
3 995 933 947 
3 933 935 934 
3 995 935 933 
3 936 935 996 
3 997 935 995 
3 996 935 997 
3 996 992 936 
3 937 939 938 
3 939 998 938 
3 998 999 938 
3 953 951 938 
3 938 999 953 
3 998 939 943 
3 941 940 1000 
3 940 994 1000 
3 941 1001 942 
3 941 1000 1002 
3 1003 941 1002 
3 1001 941 1003 
3 1001 1004 942 
3 998 944 942 
3 1005 942 1004 
3 1006 998 942 
3 942 1005 1006 
3 943 944 998 
3 945 990 1007 
3 946 945 1008 
3 1009 945 1007 
3 1009 1008 945 
3 1008 947 946 
3 947 1008 1009 
3 995 947 1009 
3 950 1010 948 
3 948 1010 968 
3 949 1011 950 
3 949 1012 1013 
3 1012 949 952 
3 1013 1014 949 
3 949 1014 1011 
3 1011 1010 950 
3 952 1015 1012 
3 1016 952 956 
3 952 1016 1015 
3 954 953 999 
3 954 999 1017 
3 1017 1018 954 
3 1018 955 954 
3 1016 956 955 
3 1016 955 1019 
3 1020 955 1021 
3 955 1018 1021 
3 955 1020 1022 
3 1022 1019 955 
3 1023 957 966 
3 1023 961 957 
3 981 962 958 
3 981 958 959 
3 981 959 1024 
3 1025 1024 959 
3 960 1025 959 
3 1026 1025 960 
3 1027 960 961 
3 1026 960 1027 
3 1028 961 1023 
3 1027 961 1028 
3 964 966 963 
3 964 1029 1030 
3 1031 964 969 
3 964 965 969 
3 1030 966 964 
3 1029 964 1032 
3 1032 964 1031 
3 1033 1023 966 
3 1034 1035 966 
3 1036 966 1030 
3 1035 1033 966 
3 1036 1034 966 
3 967 968 970 
3 968 1037 970 
3 968 1010 1038 
3 1039 968 1038 
3 1040 1037 968 
3 968 1039 1040 
3 1041 1031 969 
3 969 970 1041 
3 1041 970 1037 
3 972 974 983 
3 1042 974 973 
3 1043 973 975 
3 1042 973 1043 
3 974 1042 1044 
3 983 974 1044 
3 977 1045 975 
3 1045 1046 975 
3 975 1047 1043 
3 1047 975 1046 
3 1048 977 976 
3 976 979 1048 
3 1048 1045 977 
3 980 979 978 
3 980 1048 979 
3 980 981 1048 
3 1048 981 1024 
3 982 985 987 
3 1049 984 983 
3 1049 983 1044 
3 985 984 1050 
3 1049 1050 984 
3 1051 987 985 
3 1050 1052 985 
3 985 1053 1051 
3 1053 985 1052 
3 986 989 991 
3 988 987 1051 
3 1051 1054 988 
3 1054 989 988 
3 990 991 989 
3 1007 989 1054 
3 990 989 1007 
3 992 996 1055 
3 993 992 1055 
3 994 993 1056 
3 1056 993 1055 
3 994 1057 1000 
3 994 1056 1057 
3 995 1009 1058 
3 1059 997 995 
3 1058 1059 995 
3 997 1060 996 
3 996 1060 1055 
3 997 1059 1060 
3 999 998 1061 
3 1061 998 1062 
3 1006 1062 998 
3 1061 1063 999 
3 1063 1017 999 
3 1000 1057 1002 
3 1001 1003 1064 
3 1065 1004 1001 
3 1064 1065 1001 
3 1002 1057 1066 
3 1002 1067 1068 
3 1069 1067 1002 
3 1002 1066 1069 
3 1002 1068 1003 
3 1064 1003 1070 
3 1068 1070 1003 
3 1071 1004 1065 
3 1004 1071 1005 
3 1005 1071 1072 
3 1073 1006 1005 
3 1074 1005 1072 
3 1074 1073 1005 
3 1006 1075 1062 
3 1076 1006 1077 
3 1077 1006 1073 
3 1006 1076 1075 
3 1007 1054 1051 
3 1051 1078 1007 
3 1009 1007 1078 
3 1058 1009 1078 
3 1038 1010 1011 
3 1011 1014 1079 
3 1079 1038 1011 
3 1080 1013 1012 
3 1080 1012 1081 
3 1081 1012 1082 
3 1082 1012 1015 
3 1014 1013 1079 
3 1013 1080 1083 
3 1084 1079 1013 
3 1084 1013 1083 
3 1085 1082 1015 
3 1015 1019 1085 
3 1015 1016 1019 
3 1075 1086 1017 
3 1017 1063 1075 
3 1017 1086 1018 
3 1087 1018 1086 
3 1018 1087 1088 
3 1089 1018 1088 
3 1018 1089 1021 
3 1090 1085 1019 
3 1090 1019 1022 
3 1091 1020 1021 
3 1092 1020 1091 
3 1022 1020 1092 
3 1021 1093 1091 
3 1021 1089 1093 
3 1092 1094 1022 
3 1090 1022 1094 
3 1095 1023 1033 
3 1028 1023 1095 
3 1024 1096 1048 
3 1097 1024 1025 
3 1096 1024 1097 
3 1097 1025 1026 
3 1026 1098 1097 
3 1026 1027 1098 
3 1098 1027 1099 
3 1028 1099 1027 
3 1028 1095 1099 
3 1030 1029 1100 
3 1100 1029 1101 
3 1029 1032 1101 
3 1030 1102 1036 
3 1100 1102 1030 
3 1032 1031 1041 
3 1041 1103 1032 
3 1032 1104 1101 
3 1105 1104 1032 
3 1106 1105 1032 
3 1106 1032 1103 
3 1095 1033 1035 
3 1107 1035 1034 
3 1036 1108 1034 
3 1108 1107 1034 
3 1035 1109 1095 
3 1107 1109 1035 
3 1110 1036 1102 
3 1036 1111 1112 
3 1113 1036 1110 
3 1111 1036 1113 
3 1112 1108 1036 
3 1103 1041 1037 
3 1114 1037 1115 
3 1037 1040 1116 
3 1117 1103 1037 
3 1114 1117 1037 
3 1037 1116 1115 
3 1118 1039 1038 
3 1038 1119 1118 
3 1119 1038 1079 
3 1118 1120 1039 
3 1120 1040 1039 
3 1116 1040 1120 
3 1121 1044 1042 
3 1122 1121 1042 
3 1043 1123 1042 
3 1122 1042 1123 
3 1124 1123 1043 
3 1125 1043 1126 
3 1043 1047 1126 
3 1124 1043 1125 
3 1049 1044 1121 
3 1127 1045 1048 
3 1128 1045 1098 
3 1128 1046 1045 
3 1045 1127 1098 
3 1126 1047 1046 
3 1126 1046 1128 
3 1048 1096 1127 
3 1052 1050 1049 
3 1053 1052 1049 
3 1129 1049 1121 
3 1053 1049 1129 
3 1130 1131 1051 
3 1078 1051 1131 
3 1053 1130 1051 
3 1129 1132 1053 
3 1130 1053 1132 
3 1133 1055 1060 
3 1056 1055 1133 
3 1057 1056 1134 
3 1134 1056 1133 
3 1135 1057 1134 
3 1066 1057 1135 
3 1078 1136 1058 
3 1058 1136 1137 
3 1059 1058 1137 
3 1060 1059 1133 
3 1137 1138 1059 
3 1133 1059 1138 
3 1062 1063 1061 
3 1075 1063 1062 
3 1065 1064 1071 
3 1064 1070 1071 
3 1135 1069 1066 
3 1068 1067 1139 
3 1139 1067 1069 
3 1070 1068 1140 
3 1140 1068 1139 
3 1141 1142 1069 
3 1143 1069 1135 
3 1069 1143 1141 
3 1142 1144 1069 
3 1069 1145 1139 
3 1145 1069 1146 
3 1146 1069 1144 
3 1140 1071 1070 
3 1071 1147 1148 
3 1072 1071 1148 
3 1147 1071 1140 
3 1149 1074 1072 
3 1150 1149 1072 
3 1072 1148 1150 
3 1074 1149 1073 
3 1149 1151 1073 
3 1073 1151 1077 
3 1075 1076 1086 
3 1076 1077 1086 
3 1086 1077 1151 
3 1078 1131 1130 
3 1136 1078 1130 
3 1119 1079 1084 
3 1152 1083 1080 
3 1152 1080 1081 
3 1152 1081 1153 
3 1081 1082 1153 
3 1153 1082 1154 
3 1155 1154 1082 
3 1155 1082 1085 
3 1083 1156 1157 
3 1083 1158 1159 
3 1156 1083 1159 
3 1152 1158 1083 
3 1083 1157 1084 
3 1157 1119 1084 
3 1160 1155 1085 
3 1085 1090 1160 
3 1087 1086 1161 
3 1086 1151 1161 
3 1162 1149 1087 
3 1087 1149 1163 
3 1163 1164 1087 
3 1161 1162 1087 
3 1164 1165 1087 
3 1165 1088 1087 
3 1166 1167 1088 
3 1168 1166 1088 
3 1088 1165 1168 
3 1089 1088 1167 
3 1167 1093 1089 
3 1090 1169 1170 
3 1170 1160 1090 
3 1090 1094 1171 
3 1171 1169 1090 
3 1167 1091 1093 
3 1091 1167 1092 
3 1094 1092 1171 
3 1172 1173 1092 
3 1092 1167 1172 
3 1174 1092 1173 
3 1171 1092 1174 
3 1099 1095 1109 
3 1097 1127 1096 
3 1097 1098 1127 
3 1098 1099 1128 
3 1128 1099 1109 
3 1110 1102 1100 
3 1100 1175 1113 
3 1113 1110 1100 
3 1100 1101 1176 
3 1100 1176 1175 
3 1176 1101 1177 
3 1177 1101 1178 
3 1178 1101 1104 
3 1103 1117 1106 
3 1179 1104 1105 
3 1104 1179 1180 
3 1180 1178 1104 
3 1179 1105 1106 
3 1181 1179 1106 
3 1106 1117 1182 
3 1106 1182 1183 
3 1183 1181 1106 
3 1109 1107 1128 
3 1107 1126 1128 
3 1126 1107 1184 
3 1184 1107 1108 
3 1112 1184 1108 
3 1111 1185 1112 
3 1111 1113 1186 
3 1186 1185 1111 
3 1184 1112 1126 
3 1126 1112 1125 
3 1185 1125 1112 
3 1187 1113 1175 
3 1113 1187 1188 
3 1188 1186 1113 
3 1115 1189 1114 
3 1182 1114 1189 
3 1182 1117 1114 
3 1115 1190 1191 
3 1115 1116 1120 
3 1115 1120 1192 
3 1115 1192 1190 
3 1189 1115 1191 
3 1193 1192 1118 
3 1118 1119 1194 
3 1118 1194 1193 
3 1192 1120 1118 
3 1194 1119 1157 
3 1121 1122 1129 
3 1195 1122 1123 
3 1122 1195 1129 
3 1196 1123 1124 
3 1196 1195 1123 
3 1124 1197 1198 
3 1124 1198 1196 
3 1125 1197 1124 
3 1199 1197 1125 
3 1199 1125 1185 
3 1129 1195 1196 
3 1200 1129 1196 
3 1200 1201 1129 
3 1201 1132 1129 
3 1130 1132 1136 
3 1201 1136 1132 
3 1138 1200 1133 
3 1143 1133 1200 
3 1134 1133 1143 
3 1135 1134 1143 
3 1201 1137 1136 
3 1138 1137 1201 
3 1138 1201 1200 
3 1145 1202 1139 
3 1202 1140 1139 
3 1140 1202 1203 
3 1147 1140 1203 
3 1142 1141 1204 
3 1141 1143 1205 
3 1205 1204 1141 
3 1144 1142 1206 
3 1206 1142 1204 
3 1207 1143 1208 
3 1143 1200 1208 
3 1205 1143 1207 
3 1144 1209 1146 
3 1209 1144 1206 
3 1145 1210 1202 
3 1145 1211 1210 
3 1211 1145 1146 
3 1146 1209 1212 
3 1212 1211 1146 
3 1148 1147 1213 
3 1214 1213 1147 
3 1147 1203 1214 
3 1148 1213 1150 
3 1149 1162 1151 
3 1150 1163 1149 
3 1215 1150 1216 
3 1213 1216 1150 
3 1215 1163 1150 
3 1161 1151 1162 
3 1158 1152 1217 
3 1153 1217 1152 
3 1218 1153 1219 
3 1218 1217 1153 
3 1153 1220 1221 
3 1153 1154 1220 
3 1219 1153 1221 
3 1220 1154 1155 
3 1221 1220 1155 
3 1155 1160 1222 
3 1222 1221 1155 
3 1157 1156 1194 
3 1156 1159 1223 
3 1224 1156 1223 
3 1194 1156 1224 
3 1158 1217 1159 
3 1223 1159 1217 
3 1222 1160 1225 
3 1225 1160 1226 
3 1160 1170 1226 
3 1164 1163 1215 
3 1215 1227 1164 
3 1165 1164 1227 
3 1227 1168 1165 
3 1167 1166 1228 
3 1229 1228 1166 
3 1166 1168 1229 
3 1172 1167 1230 
3 1167 1228 1230 
3 1231 1229 1168 
3 1168 1227 1231 
3 1170 1169 1232 
3 1171 1233 1169 
3 1169 1233 1232 
3 1170 1232 1234 
3 1226 1170 1235 
3 1235 1170 1234 
3 1174 1233 1171 
3 1236 1173 1172 
3 1230 1236 1172 
3 1173 1236 1174 
3 1233 1174 1237 
3 1174 1236 1238 
3 1174 1238 1237 
3 1175 1176 1177 
3 1239 1187 1175 
3 1240 1239 1175 
3 1175 1177 1240 
3 1177 1241 1242 
3 1177 1242 1240 
3 1241 1177 1243 
3 1177 1178 1243 
3 1178 1180 1244 
3 1243 1178 1244 
3 1244 1180 1179 
3 1244 1179 1181 
3 1181 1245 1246 
3 1244 1181 1246 
3 1245 1181 1247 
3 1247 1181 1183 
3 1182 1247 1183 
3 1182 1189 1248 
3 1248 1249 1182 
3 1247 1182 1249 
3 1185 1250 1199 
3 1188 1251 1185 
3 1251 1252 1185 
3 1185 1186 1188 
3 1250 1185 1252 
3 1253 1187 1239 
3 1253 1188 1187 
3 1188 1253 1254 
3 1251 1188 1254 
3 1248 1189 1191 
3 1191 1190 1255 
3 1192 1256 1190 
3 1255 1190 1256 
3 1191 1257 1258 
3 1191 1259 1248 
3 1259 1191 1258 
3 1255 1257 1191 
3 1192 1193 1256 
3 1193 1194 1260 
3 1256 1193 1260 
3 1261 1194 1224 
3 1194 1261 1260 
3 1208 1196 1262 
3 1196 1198 1262 
3 1196 1208 1200 
3 1263 1198 1197 
3 1264 1263 1197 
3 1265 1264 1197 
3 1197 1199 1265 
3 1262 1198 1263 
3 1265 1199 1250 
3 1266 1203 1202 
3 1202 1210 1267 
3 1202 1267 1266 
3 1268 1203 1266 
3 1203 1268 1214 
3 1269 1206 1204 
3 1205 1270 1204 
3 1271 1269 1204 
3 1204 1270 1271 
3 1207 1272 1205 
3 1273 1274 1205 
3 1205 1272 1273 
3 1274 1270 1205 
3 1275 1209 1206 
3 1269 1276 1206 
3 1206 1276 1275 
3 1262 1207 1208 
3 1207 1262 1277 
3 1207 1277 1272 
3 1209 1278 1212 
3 1279 1209 1275 
3 1279 1278 1209 
3 1210 1280 1267 
3 1211 1280 1210 
3 1212 1281 1211 
3 1281 1280 1211 
3 1282 1212 1278 
3 1282 1283 1212 
3 1283 1281 1212 
3 1284 1285 1213 
3 1214 1284 1213 
3 1286 1213 1285 
3 1287 1213 1286 
3 1288 1213 1287 
3 1216 1213 1288 
3 1268 1284 1214 
3 1289 1215 1216 
3 1227 1215 1289 
3 1216 1290 1289 
3 1216 1288 1291 
3 1291 1290 1216 
3 1217 1224 1223 
3 1224 1217 1218 
3 1219 1224 1218 
3 1219 1255 1224 
3 1255 1219 1292 
3 1292 1219 1221 
3 1292 1221 1222 
3 1222 1225 1293 
3 1292 1222 1294 
3 1295 1294 1222 
3 1222 1293 1295 
3 1261 1224 1296 
3 1255 1296 1224 
3 1225 1226 1297 
3 1293 1225 1297 
3 1226 1235 1297 
3 1231 1227 1298 
3 1227 1289 1298 
3 1230 1228 1299 
3 1300 1299 1228 
3 1300 1228 1229 
3 1229 1231 1300 
3 1230 1299 1301 
3 1230 1301 1302 
3 1302 1236 1230 
3 1231 1298 1300 
3 1232 1303 1234 
3 1232 1233 1237 
3 1232 1304 1303 
3 1237 1304 1232 
3 1235 1234 1305 
3 1234 1303 1306 
3 1305 1234 1306 
3 1297 1235 1307 
3 1308 1307 1235 
3 1308 1235 1305 
3 1238 1236 1302 
3 1309 1310 1237 
3 1237 1238 1309 
3 1311 1237 1312 
3 1237 1310 1312 
3 1311 1304 1237 
3 1238 1313 1309 
3 1302 1314 1238 
3 1313 1238 1314 
3 1239 1240 1315 
3 1316 1317 1239 
3 1317 1253 1239 
3 1316 1239 1315 
3 1315 1240 1242 
3 1242 1241 1318 
3 1318 1241 1243 
3 1242 1319 1315 
3 1318 1319 1242 
3 1243 1320 1318 
3 1243 1321 1320 
3 1322 1323 1243 
3 1246 1322 1243 
3 1321 1243 1323 
3 1246 1243 1244 
3 1322 1246 1245 
3 1245 1247 1322 
3 1247 1249 1322 
3 1324 1248 1259 
3 1248 1324 1325 
3 1325 1249 1248 
3 1249 1325 1326 
3 1322 1249 1327 
3 1326 1327 1249 
3 1252 1265 1250 
3 1254 1328 1251 
3 1252 1251 1328 
3 1252 1329 1265 
3 1330 1329 1252 
3 1252 1328 1331 
3 1252 1331 1332 
3 1252 1333 1330 
3 1332 1333 1252 
3 1254 1253 1317 
3 1328 1254 1317 
3 1256 1296 1255 
3 1255 1334 1335 
3 1335 1257 1255 
3 1334 1255 1292 
3 1260 1296 1256 
3 1257 1336 1258 
3 1336 1257 1335 
3 1259 1258 1336 
3 1259 1337 1324 
3 1259 1336 1337 
3 1260 1261 1296 
3 1263 1277 1262 
3 1277 1263 1273 
3 1338 1273 1263 
3 1338 1263 1264 
3 1264 1265 1329 
3 1329 1339 1264 
3 1264 1340 1338 
3 1340 1264 1339 
3 1268 1266 1267 
3 1267 1280 1268 
3 1280 1284 1268 
3 1341 1269 1271 
3 1342 1343 1269 
3 1342 1269 1341 
3 1344 1269 1343 
3 1344 1276 1269 
3 1271 1270 1274 
3 1274 1341 1271 
3 1273 1272 1277 
3 1274 1273 1338 
3 1341 1274 1345 
3 1274 1346 1347 
3 1346 1274 1338 
3 1348 1345 1274 
3 1274 1347 1349 
3 1348 1274 1349 
3 1275 1350 1279 
3 1350 1275 1344 
3 1275 1276 1344 
3 1282 1278 1279 
3 1279 1351 1282 
3 1350 1351 1279 
3 1284 1280 1281 
3 1284 1281 1285 
3 1285 1281 1283 
3 1352 1283 1282 
3 1353 1352 1282 
3 1282 1351 1354 
3 1353 1282 1354 
3 1352 1285 1283 
3 1286 1285 1352 
3 1286 1352 1355 
3 1355 1356 1286 
3 1357 1287 1286 
3 1357 1286 1356 
3 1288 1287 1357 
3 1358 1288 1357 
3 1291 1288 1358 
3 1298 1289 1290 
3 1290 1291 1298 
3 1291 1359 1298 
3 1291 1358 1360 
3 1359 1291 1360 
3 1294 1334 1292 
3 1361 1293 1362 
3 1293 1361 1295 
3 1293 1297 1362 
3 1335 1334 1294 
3 1335 1294 1363 
3 1294 1295 1364 
3 1364 1363 1294 
3 1295 1361 1365 
3 1295 1365 1366 
3 1295 1366 1364 
3 1367 1297 1368 
3 1297 1307 1368 
3 1362 1297 1367 
3 1298 1369 1300 
3 1298 1359 1370 
3 1370 1369 1298 
3 1301 1299 1300 
3 1300 1371 1301 
3 1369 1371 1300 
3 1372 1301 1371 
3 1302 1301 1373 
3 1373 1301 1372 
3 1314 1302 1373 
3 1311 1306 1303 
3 1303 1304 1311 
3 1306 1374 1305 
3 1305 1375 1308 
3 1374 1375 1305 
3 1311 1376 1306 
3 1306 1376 1374 
3 1307 1308 1368 
3 1368 1308 1377 
3 1377 1308 1375 
3 1310 1309 1313 
3 1310 1378 1379 
3 1313 1378 1310 
3 1379 1312 1310 
3 1312 1380 1311 
3 1311 1380 1376 
3 1381 1380 1312 
3 1312 1379 1381 
3 1382 1383 1313 
3 1313 1383 1378 
3 1314 1382 1313 
3 1384 1382 1314 
3 1373 1384 1314 
3 1315 1385 1317 
3 1317 1316 1315 
3 1385 1315 1386 
3 1387 1386 1315 
3 1315 1319 1387 
3 1317 1385 1328 
3 1388 1319 1318 
3 1320 1389 1318 
3 1388 1318 1389 
3 1319 1388 1387 
3 1321 1390 1320 
3 1391 1389 1320 
3 1320 1392 1391 
3 1390 1392 1320 
3 1390 1321 1393 
3 1323 1393 1321 
3 1394 1323 1322 
3 1395 1322 1396 
3 1394 1322 1395 
3 1322 1327 1396 
3 1323 1397 1393 
3 1397 1323 1394 
3 1398 1324 1399 
3 1399 1324 1337 
3 1325 1324 1398 
3 1400 1326 1325 
3 1325 1398 1400 
3 1401 1396 1326 
3 1327 1326 1396 
3 1326 1400 1401 
3 1331 1328 1385 
3 1339 1329 1402 
3 1402 1329 1330 
3 1333 1403 1330 
3 1330 1403 1402 
3 1404 1331 1385 
3 1332 1331 1405 
3 1331 1404 1405 
3 1405 1406 1332 
3 1333 1332 1406 
3 1407 1403 1333 
3 1333 1406 1407 
3 1363 1408 1335 
3 1409 1335 1408 
3 1336 1335 1409 
3 1410 1336 1409 
3 1336 1410 1411 
3 1411 1337 1336 
3 1399 1337 1412 
3 1412 1337 1411 
3 1346 1338 1340 
3 1413 1346 1339 
3 1339 1414 1413 
3 1339 1402 1414 
3 1346 1340 1339 
3 1342 1341 1348 
3 1345 1348 1341 
3 1415 1343 1342 
3 1416 1342 1417 
3 1342 1418 1415 
3 1342 1348 1417 
3 1418 1342 1416 
3 1419 1344 1343 
3 1415 1419 1343 
3 1344 1419 1350 
3 1420 1347 1346 
3 1420 1346 1413 
3 1349 1347 1420 
3 1417 1348 1349 
3 1421 1422 1349 
3 1413 1349 1420 
3 1422 1423 1349 
3 1424 1349 1423 
3 1417 1349 1425 
3 1349 1413 1421 
3 1425 1349 1424 
3 1350 1426 1351 
3 1427 1426 1350 
3 1350 1419 1428 
3 1428 1427 1350 
3 1426 1354 1351 
3 1353 1355 1352 
3 1429 1430 1353 
3 1355 1353 1430 
3 1354 1431 1353 
3 1429 1353 1431 
3 1431 1354 1426 
3 1355 1432 1356 
3 1433 1434 1355 
3 1430 1433 1355 
3 1360 1432 1355 
3 1360 1355 1434 
3 1435 1356 1432 
3 1357 1356 1435 
3 1358 1357 1435 
3 1360 1358 1435 
3 1359 1360 1370 
3 1435 1432 1360 
3 1436 1360 1437 
3 1434 1437 1360 
3 1370 1360 1438 
3 1438 1360 1436 
3 1362 1365 1361 
3 1439 1362 1440 
3 1367 1440 1362 
3 1362 1439 1365 
3 1408 1363 1441 
3 1363 1366 1441 
3 1364 1366 1363 
3 1442 1366 1365 
3 1439 1443 1365 
3 1442 1365 1443 
3 1444 1366 1442 
3 1441 1366 1444 
3 1367 1368 1377 
3 1367 1375 1445 
3 1446 1367 1445 
3 1377 1375 1367 
3 1440 1367 1446 
3 1447 1369 1448 
3 1448 1369 1370 
3 1371 1369 1449 
3 1369 1447 1449 
3 1370 1450 1448 
3 1451 1370 1438 
3 1450 1370 1451 
3 1449 1372 1371 
3 1449 1452 1372 
3 1452 1453 1372 
3 1373 1372 1453 
3 1384 1373 1453 
3 1376 1454 1374 
3 1454 1455 1374 
3 1374 1455 1375 
3 1375 1455 1445 
3 1376 1380 1456 
3 1454 1376 1456 
3 1379 1378 1457 
3 1378 1383 1457 
3 1458 1379 1457 
3 1381 1379 1458 
3 1456 1380 1381 
3 1381 1458 1459 
3 1459 1456 1381 
3 1382 1460 1383 
3 1382 1384 1453 
3 1460 1382 1453 
3 1461 1457 1383 
3 1383 1460 1461 
3 1385 1386 1404 
3 1462 1386 1463 
3 1387 1463 1386 
3 1404 1386 1462 
3 1464 1463 1387 
3 1465 1387 1389 
3 1387 1465 1466 
3 1387 1388 1389 
3 1387 1467 1468 
3 1468 1464 1387 
3 1387 1466 1467 
3 1391 1465 1389 
3 1390 1393 1469 
3 1469 1470 1390 
3 1470 1392 1390 
3 1471 1465 1391 
3 1472 1391 1392 
3 1471 1391 1472 
3 1392 1473 1474 
3 1473 1392 1470 
3 1392 1474 1472 
3 1469 1393 1397 
3 1473 1397 1394 
3 1475 1474 1394 
3 1474 1473 1394 
3 1475 1394 1395 
3 1395 1396 1401 
3 1476 1395 1401 
3 1475 1395 1476 
3 1469 1397 1473 
3 1399 1477 1398 
3 1478 1400 1398 
3 1398 1477 1478 
3 1399 1479 1477 
3 1480 1481 1399 
3 1479 1399 1481 
3 1480 1399 1412 
3 1478 1482 1400 
3 1483 1401 1400 
3 1482 1483 1400 
3 1401 1483 1484 
3 1485 1476 1401 
3 1401 1484 1485 
3 1486 1414 1402 
3 1402 1487 1488 
3 1487 1402 1403 
3 1402 1488 1489 
3 1489 1486 1402 
3 1487 1403 1407 
3 1405 1404 1462 
3 1490 1405 1491 
3 1405 1462 1491 
3 1406 1405 1490 
3 1490 1407 1406 
3 1407 1492 1487 
3 1490 1493 1407 
3 1492 1407 1493 
3 1408 1494 1409 
3 1441 1444 1408 
3 1494 1408 1495 
3 1495 1408 1444 
3 1494 1410 1409 
3 1411 1410 1494 
3 1496 1411 1494 
3 1412 1411 1497 
3 1496 1497 1411 
3 1412 1498 1480 
3 1499 1412 1497 
3 1412 1499 1498 
3 1414 1421 1413 
3 1500 1414 1486 
3 1422 1414 1500 
3 1414 1422 1421 
3 1415 1501 1419 
3 1501 1415 1502 
3 1415 1418 1502 
3 1417 1503 1416 
3 1416 1504 1418 
3 1503 1504 1416 
3 1503 1417 1505 
3 1505 1417 1425 
3 1504 1506 1418 
3 1418 1506 1502 
3 1428 1419 1507 
3 1501 1507 1419 
3 1422 1508 1509 
3 1500 1508 1422 
3 1509 1423 1422 
3 1424 1423 1509 
3 1510 1511 1424 
3 1509 1510 1424 
3 1425 1424 1511 
3 1511 1505 1425 
3 1427 1431 1426 
3 1512 1431 1427 
3 1427 1428 1512 
3 1428 1507 1513 
3 1513 1512 1428 
3 1433 1430 1429 
3 1433 1429 1514 
3 1514 1429 1515 
3 1512 1515 1429 
3 1429 1431 1512 
3 1434 1433 1514 
3 1516 1437 1434 
3 1516 1434 1514 
3 1437 1517 1436 
3 1518 1438 1436 
3 1436 1517 1518 
3 1517 1437 1516 
3 1519 1438 1518 
3 1451 1438 1519 
3 1520 1439 1440 
3 1443 1439 1520 
3 1440 1446 1520 
3 1442 1443 1444 
3 1521 1443 1522 
3 1443 1523 1522 
3 1520 1523 1443 
3 1521 1444 1443 
3 1521 1495 1444 
3 1524 1445 1525 
3 1445 1526 1525 
3 1445 1455 1526 
3 1446 1445 1527 
3 1445 1524 1527 
3 1527 1528 1446 
3 1520 1446 1528 
3 1447 1448 1529 
3 1449 1447 1529 
3 1530 1531 1448 
3 1529 1448 1531 
3 1448 1450 1530 
3 1449 1532 1533 
3 1449 1533 1452 
3 1529 1532 1449 
3 1451 1530 1450 
3 1534 1530 1451 
3 1535 1536 1451 
3 1451 1519 1535 
3 1536 1534 1451 
3 1537 1453 1452 
3 1538 1539 1452 
3 1539 1540 1452 
3 1452 1533 1538 
3 1537 1452 1541 
3 1540 1541 1452 
3 1453 1542 1460 
3 1453 1537 1543 
3 1453 1543 1542 
3 1455 1454 1526 
3 1544 1545 1454 
3 1459 1454 1456 
3 1545 1526 1454 
3 1459 1544 1454 
3 1457 1546 1458 
3 1461 1546 1457 
3 1458 1547 1459 
3 1547 1458 1546 
3 1548 1459 1547 
3 1544 1459 1548 
3 1549 1461 1460 
3 1460 1550 1549 
3 1460 1542 1550 
3 1461 1549 1546 
3 1462 1463 1464 
3 1468 1491 1462 
3 1464 1468 1462 
3 1471 1466 1465 
3 1467 1466 1471 
3 1467 1491 1468 
3 1467 1551 1552 
3 1552 1491 1467 
3 1553 1551 1467 
3 1471 1553 1467 
3 1470 1469 1473 
3 1472 1553 1471 
3 1554 1553 1472 
3 1555 1554 1472 
3 1555 1472 1474 
3 1474 1556 1557 
3 1474 1557 1555 
3 1558 1474 1475 
3 1556 1474 1558 
3 1476 1558 1475 
3 1476 1485 1559 
3 1558 1476 1559 
3 1477 1479 1560 
3 1477 1560 1561 
3 1478 1477 1561 
3 1478 1561 1482 
3 1479 1481 1560 
3 1560 1481 1480 
3 1480 1562 1560 
3 1498 1562 1480 
3 1482 1563 1564 
3 1483 1482 1565 
3 1560 1562 1482 
3 1562 1563 1482 
3 1564 1565 1482 
3 1482 1561 1560 
3 1483 1565 1566 
3 1484 1483 1567 
3 1567 1483 1566 
3 1568 1484 1567 
3 1484 1568 1485 
3 1559 1485 1569 
3 1569 1485 1570 
3 1570 1485 1568 
3 1489 1571 1486 
3 1486 1508 1500 
3 1486 1572 1508 
3 1571 1572 1486 
3 1573 1488 1487 
3 1487 1574 1573 
3 1492 1574 1487 
3 1489 1488 1573 
3 1573 1571 1489 
3 1491 1552 1490 
3 1490 1552 1575 
3 1493 1490 1575 
3 1493 1576 1492 
3 1492 1577 1574 
3 1576 1577 1492 
3 1575 1576 1493 
3 1494 1495 1496 
3 1496 1495 1521 
3 1578 1496 1579 
3 1496 1578 1580 
3 1579 1496 1521 
3 1497 1496 1580 
3 1497 1580 1499 
3 1498 1581 1562 
3 1581 1498 1499 
3 1499 1582 1583 
3 1582 1499 1580 
3 1581 1499 1583 
3 1584 1507 1501 
3 1502 1585 1501 
3 1586 1501 1587 
3 1585 1587 1501 
3 1586 1584 1501 
3 1588 1585 1502 
3 1506 1588 1502 
