NORM_ASCII
1884 3725
   0.0122399   -0.2526688    0.0694408   -0.3002693   -0.1062029    0.9479237
   0.0114543   -0.2532166    0.0585033    0.8425890   -0.3813510   -0.3802830
   0.0115083   -0.2529501    0.0583533    0.7668531   -0.4369744   -0.4700953
   0.0114543   -0.2533831    0.0587131    0.8223152   -0.4657574   -0.3269063
   0.0116106   -0.2521692    0.0578791    0.6861384   -0.4108887   -0.6003204
   0.0120292   -0.2516479    0.0579382    0.5967746   -0.3446210   -0.7246354
   0.0120340   -0.2511342    0.0578184    0.6181791   -0.0956102   -0.7802008
   0.0138216   -0.2508338    0.0604826    0.7499789   -0.3554353   -0.5578507
   0.0135340   -0.2512474    0.0605063    0.3605660   -0.4257813   -0.8298810
   0.0138244   -0.2508425    0.0604912    0.5065015   -0.2817992   -0.8148898
   0.0136961   -0.2503852    0.0600845    0.8549877   -0.0274597   -0.5179209
   0.0137753   -0.2506246    0.0602807    0.8406099   -0.2108535   -0.4989146
   0.0128786   -0.2500166    0.0589020    0.7478134    0.2779607   -0.6029203
   0.0130653   -0.2492349    0.0594768    0.7708702    0.2650880   -0.5792128
   0.0134114   -0.2492629    0.0599553    0.7913009    0.2366612   -0.5637680
   0.0138329   -0.2494077    0.0604807    0.8206433    0.2231128   -0.5260848
   0.0124832   -0.2505374    0.0582767    0.6709199    0.1806849   -0.7191797
   0.0119306   -0.2503392    0.0578596    0.5873110    0.2054691   -0.7828462
   0.0125794   -0.2501058    0.0585078    0.6876712    0.2843014   -0.6680427
   0.0139982   -0.2511627    0.0606625    0.3256691    0.0293092   -0.9450294
   0.0139842   -0.2511427    0.0606561    0.4142839   -0.1288993   -0.9009738
   0.0139916   -0.2502983    0.0604853    0.7704311   -0.0666912   -0.6340254
   0.0141077   -0.2480344    0.0620027    0.8362326    0.4002564   -0.3748465
   0.0144481   -0.2485869    0.0622451    0.8722340    0.3509493   -0.3406501
   0.0143443   -0.2479339    0.0628048    0.8357599    0.5056408   -0.2140859
   0.0146223   -0.2479667    0.0642913    0.8299546    0.5341384   -0.1608463
   0.0144660   -0.2478561    0.0640164    0.7499563    0.6452019   -0.1458769
   0.0132468   -0.2464044    0.0638150    0.7367297    0.6702039   -0.0897552
   0.0142419   -0.2477206    0.0632391    0.7588557    0.6364133   -0.1382612
   0.0157615   -0.2501562    0.0658640    0.8827789    0.2877354    0.3713619
   0.0155455   -0.2494966    0.0658258    0.8766379    0.3408511    0.3395978
   0.0147767   -0.2480004    0.0651734    0.8141674    0.5806051    0.0053960
   0.0152703   -0.2489029    0.0657427    0.8533484    0.4717564    0.2219064
   0.0138731   -0.2537758    0.0695601    0.1302614   -0.2455510    0.9605918
   0.0139966   -0.2536065    0.0695571    0.3165454   -0.0360790    0.9478910
   0.0137384   -0.2525034    0.0694257    0.3923775    0.2974811    0.8703705
   0.0136224   -0.2531983    0.0696498    0.1730945    0.0796379    0.9816802
   0.0137785   -0.2529579    0.0695609    0.3407829    0.2292725    0.9117572
   0.0142086   -0.2522388    0.0690939    0.4589632    0.3625817    0.8111026
   0.0141020   -0.2513086    0.0686355    0.5309399    0.4489033    0.7187410
   0.0149308   -0.2497885    0.0672536    0.8117051    0.2676686    0.5191227
   0.0140595   -0.2503071    0.0682259    0.5632984    0.3044508    0.7681176
   0.0147843   -0.2505885    0.0677077    0.7282806    0.2398795    0.6419231
   0.0146891   -0.2497187    0.0675106    0.6515133    0.2946806    0.6990664
   0.0140198   -0.2508987    0.0684509    0.5157735    0.3562522    0.7791419
   0.0093729   -0.2531729    0.0571381   -0.0793750   -0.7204804   -0.6889177
   0.0101497   -0.2536068    0.0574218   -0.1193691   -0.7557200   -0.6439242
   0.0103722   -0.2538421    0.0576562    0.0284456   -0.7244357   -0.6887552
   0.0080985   -0.2546314    0.0584358    0.0113886   -0.6931726   -0.7206816
   0.0065081   -0.2552963    0.0591591   -0.0635323   -0.7346032   -0.6755159
   0.0106970   -0.2542617    0.0581181    0.4794139   -0.6173666   -0.6237153
   0.0106695   -0.2540705    0.0579128    0.3970439   -0.6190536   -0.6775904
   0.0109849   -0.2541168    0.0582575    0.5973708   -0.5584779   -0.5755437
   0.0110533   -0.2540154    0.0582368    0.7164392   -0.4632369   -0.5216574
   0.0111665   -0.2539065    0.0584001    0.8720877   -0.3439374   -0.3480949
   0.0112617   -0.2535650    0.0582946    0.8822090   -0.3234981   -0.3421349
   0.0052814   -0.2566285    0.0610989    0.1947267   -0.9309542   -0.3088782
   0.0052576   -0.2567465    0.0616114    0.3615614   -0.9314915    0.0399615
   0.0057111   -0.2565727    0.0615195    0.3111417   -0.9216530    0.2318330
   0.0050853   -0.2565582    0.0630851    0.6040775   -0.7331352    0.3124152
   0.0051242   -0.2562344    0.0635298    0.6219980   -0.6423289    0.4478080
   0.0049592   -0.2558884    0.0642192    0.6576672   -0.6365347    0.4028617
   0.0044706   -0.2569189    0.0634566    0.6459366   -0.6927372    0.3207507
   0.0055435   -0.2552505    0.0644447    0.5413996   -0.7033957    0.4605659
   0.0047727   -0.2569897    0.0622355    0.4441499   -0.8958522    0.0134052
   0.0050050   -0.2568716    0.0617761    0.2910029   -0.9350430   -0.2025138
   0.0054012   -0.2555255    0.0596323   -0.1306669   -0.6890143   -0.7128713
   0.0054688   -0.2560373    0.0601036   -0.0776128   -0.7404401   -0.6676262
   0.0048598   -0.2566454    0.0609845    0.0902737   -0.8885929   -0.4497258
   0.0047295   -0.2564786    0.0607420   -0.0658394   -0.7745326   -0.6290981
   0.0046607   -0.2560820    0.0603341   -0.1168618   -0.6739268   -0.7294971
   0.0065561   -0.2541350    0.0654284    0.2055156   -0.8857844    0.4161123
   0.0060775   -0.2546504    0.0647845    0.3881935   -0.7965237    0.4635254
   0.0073104   -0.2540353    0.0653789    0.1345405   -0.8952657    0.4247331
   0.0066070   -0.2536993    0.0664999    0.2425413   -0.8835423    0.4006578
   0.0068304   -0.2538889    0.0658970    0.1989526   -0.9016658    0.3839488
   0.0073465   -0.2534362    0.0668078    0.0412636   -0.9028980    0.4278698
   0.0079321   -0.2535385    0.0663365    0.0404333   -0.9502831    0.3087510
   0.0064689   -0.2533780    0.0671850    0.2555472   -0.8186709    0.5142700
   0.0094582   -0.2531703    0.0677505   -0.2744811   -0.8160778    0.5086031
   0.0080074   -0.2534425    0.0666860   -0.0200662   -0.9368458    0.3491667
   0.0082851   -0.2532291    0.0672857   -0.1051791   -0.8942768    0.4349786
   0.0092388   -0.2531402    0.0677087   -0.1939582   -0.8304715    0.5222043
   0.0088020   -0.2530867    0.0676229   -0.1876906   -0.8121209    0.5524780
   0.0098956   -0.2527373    0.0683462   -0.3544897   -0.4316002    0.8294928
   0.0096964   -0.2521083    0.0685131   -0.3294622   -0.2270027    0.9164739
   0.0099671   -0.2517709    0.0686305   -0.3615627   -0.0667196    0.9299575
   0.0098384   -0.2527997    0.0682893   -0.3164337   -0.5537708    0.7701997
   0.0136654   -0.2536039    0.0696212    0.0493356   -0.1736603    0.9835691
   0.0132707   -0.2532062    0.0696468   -0.1273669    0.0136596    0.9917616
   0.0130755   -0.2529880    0.0696081   -0.2406164   -0.0559903    0.9690040
   0.0134638   -0.2534145    0.0696522   -0.0541480   -0.1180686    0.9915280
   0.0128974   -0.2527503    0.0695705   -0.0910556    0.0540121    0.9943800
   0.0127056   -0.2525319    0.0695526   -0.1109242    0.0084604    0.9937929
   0.0102778   -0.2514680    0.0687396   -0.3537029    0.1055464    0.9293838
   0.0114498   -0.2516648    0.0692318   -0.3357876    0.0320645    0.9413918
   0.0125534   -0.2522600    0.0695240   -0.0974659    0.0868442    0.9914426
   0.0119486   -0.2516288    0.0693746   -0.1925605    0.1274292    0.9729760
   0.0111943   -0.2531702    0.0578865    0.8477486   -0.3321993   -0.4134803
   0.0115036   -0.2517808    0.0575325    0.7625620   -0.2327732   -0.6035858
   0.0118918   -0.2517370    0.0578625    0.6212431   -0.3181828   -0.7161122
   0.0116111   -0.2511508    0.0574996    0.6357509   -0.0278990   -0.7713900
   0.0128615   -0.2490081    0.0593606    0.6662624    0.3731928   -0.6456172
   0.0120996   -0.2494908    0.0583739    0.5972456    0.3829964   -0.7047066
   0.0135318   -0.2484180    0.0605394    0.7934327    0.3152946   -0.5206283
   0.0121205   -0.2500362    0.0581287    0.5889167    0.3149636   -0.7442950
   0.0111995   -0.2511389    0.0571290    0.7298840    0.0962596   -0.6767595
   0.0112559   -0.2506474    0.0573382    0.5488191    0.2869797   -0.7851371
   0.0114204   -0.2500378    0.0576647    0.5145292    0.3686466   -0.7741831
   0.0137508   -0.2478761    0.0613744    0.7885576    0.4392495   -0.4303914
   0.0137738   -0.2475407    0.0619826    0.7429194    0.6204205   -0.2512949
   0.0140315   -0.2477336    0.0622454    0.7524878    0.6100374   -0.2482267
   0.0136928   -0.2475629    0.0616656    0.7231420    0.6148046   -0.3147712
   0.0139225   -0.2475101    0.0626066    0.7269358    0.6591431   -0.1926001
   0.0140039   -0.2472360    0.0647563    0.7143041    0.6977598    0.0538601
   0.0135584   -0.2466852    0.0646588    0.7277141    0.6800863    0.0889648
   0.0130992   -0.2464142    0.0631181    0.7140553    0.6721966   -0.1956444
   0.0127985   -0.2460098    0.0635835    0.5701047    0.8200953   -0.0492377
   0.0131666   -0.2463576    0.0649478    0.6484046    0.7543857    0.1023408
   0.0149658   -0.2490952    0.0667221    0.8626591    0.2979194    0.4087338
   0.0152115   -0.2491124    0.0662040    0.8442030    0.4090206    0.3464440
   0.0145853   -0.2481535    0.0664857    0.7760363    0.5543992    0.3006813
   0.0144176   -0.2476458    0.0655317    0.6957037    0.7051844    0.1367896
   0.0150237   -0.2488158    0.0662927    0.8488578    0.4385731    0.2951170
   0.0150583   -0.2488682    0.0662772    0.8779184    0.3574983    0.3185189
   0.0135836   -0.2527519    0.0695588    0.1357592    0.2311808    0.9633924
   0.0133958   -0.2525266    0.0695286    0.1365956    0.2351322    0.9623173
   0.0134379   -0.2519392    0.0693227    0.2811723    0.3743703    0.8836227
   0.0137838   -0.2518898    0.0691468    0.4043552    0.4073495    0.8188793
   0.0134513   -0.2513613    0.0690190    0.3470185    0.4224999    0.8373004
   0.0144374   -0.2485377    0.0671305    0.6980046    0.4370339    0.5672662
   0.0135237   -0.2501555    0.0684463    0.3628095    0.3396417    0.8677631
   0.0139755   -0.2499142    0.0680989    0.5070524    0.3216255    0.7996593
   0.0137302   -0.2492855    0.0680392    0.4163290    0.3334429    0.8458641
   0.0143514   -0.2487057    0.0673180    0.5363712    0.4346462    0.7234561
   0.0139414   -0.2489021    0.0676962    0.4975321    0.4120271    0.7633449
   0.0089908   -0.2525632    0.0564628   -0.0906445   -0.7150167   -0.6932061
   0.0097786   -0.2530145    0.0568665   -0.1970848   -0.7560536   -0.6241319
   0.0102114   -0.2534661    0.0572157   -0.1206535   -0.7592795   -0.6394821
   0.0090387   -0.2531558    0.0571282   -0.0097660   -0.7023621   -0.7117528
   0.0104528   -0.2536779    0.0574657    0.1017917   -0.7745378   -0.6242833
   0.0105947   -0.2536687    0.0575059    0.3806885   -0.6734240   -0.6337006
   0.0061048   -0.2547808    0.0587213   -0.0854276   -0.7046952   -0.7043485
   0.0067286   -0.2535680    0.0574325   -0.0327857   -0.6776162   -0.7346845
   0.0077994   -0.2535198    0.0574394    0.0217411   -0.6615232   -0.7496095
   0.0110394   -0.2538859    0.0580911    0.7305610   -0.4511705   -0.5125679
   0.0107711   -0.2538007    0.0577761    0.5713958   -0.5294773   -0.6270252
   0.0110008   -0.2536836    0.0578880    0.7174761   -0.4265276   -0.5507288
   0.0045240   -0.2570926    0.0626975    0.5523129   -0.8278922    0.0976983
   0.0038112   -0.2574318    0.0640788    0.7100290   -0.6318314    0.3108825
   0.0046658   -0.2555904    0.0651404    0.6546401   -0.6278234    0.4210512
   0.0039712   -0.2574406    0.0629702    0.5905398   -0.8065892    0.0260122
   0.0054417   -0.2549212    0.0650717    0.5851464   -0.7026588    0.4048140
   0.0043707   -0.2570018    0.0615557    0.2518746   -0.9186488   -0.3043742
   0.0042839   -0.2572305    0.0622874    0.3570153   -0.9148319   -0.1887398
   0.0044580   -0.2567597    0.0611165    0.0801846   -0.8266003   -0.5570478
   0.0058023   -0.2547093    0.0586776   -0.1818530   -0.6984760   -0.6921422
   0.0052271   -0.2552355    0.0594352   -0.2576611   -0.6803148   -0.6861359
   0.0046137   -0.2551748    0.0595940   -0.1394905   -0.6371506   -0.7580115
   0.0035439   -0.2558510    0.0601577   -0.0794930   -0.6982069   -0.7114688
   0.0039712   -0.2557072    0.0600456    0.0518294   -0.6714839   -0.7392044
   0.0062740   -0.2541111    0.0656533    0.3992932   -0.9057015    0.1423717
   0.0067418   -0.2539730    0.0657590    0.2200221   -0.9324961    0.2864284
   0.0059785   -0.2543648    0.0654629    0.5167190   -0.7836852    0.3447303
   0.0064575   -0.2539212    0.0660740    0.2457860   -0.9044558    0.3486387
   0.0064568   -0.2536674    0.0666606    0.1724597   -0.8562569    0.4869105
   0.0062417   -0.2538879    0.0663209    0.0994574   -0.8716024    0.4800181
   0.0066838   -0.2531043    0.0674583    0.0773850   -0.7014893    0.7084662
   0.0075995   -0.2532240    0.0672894    0.0155158   -0.8663780    0.4991476
   0.0073705   -0.2531100    0.0674518   -0.0602005   -0.7042249    0.7074201
   0.0070946   -0.2530275    0.0675042   -0.0155332   -0.7970545    0.6037076
   0.0060465   -0.2538740    0.0665641    0.3733249   -0.8572127    0.3547041
   0.0058545   -0.2538627    0.0668070    0.3704437   -0.7994823    0.4728630
   0.0059519   -0.2535651    0.0672066    0.2403721   -0.7299820    0.6398028
   0.0062097   -0.2532597    0.0673826    0.1293043   -0.5543344    0.8221884
   0.0093952   -0.2528721    0.0680671   -0.2401957   -0.6377295    0.7318518
   0.0080588   -0.2531085    0.0674351   -0.0579631   -0.7928658    0.6066335
   0.0089480   -0.2529541    0.0678641   -0.2628885   -0.6411690    0.7209660
   0.0085337   -0.2526068    0.0679798   -0.2231697   -0.5150782    0.8275807
   0.0096370   -0.2526099    0.0683193   -0.2900466   -0.4296129    0.8551641
   0.0089322   -0.2518041    0.0682446   -0.2981248   -0.0276628    0.9541260
   0.0089880   -0.2525060    0.0681502   -0.2771522   -0.3389590    0.8990514
   0.0097197   -0.2506275    0.0684116   -0.3501635    0.1287285    0.9278009
   0.0130927   -0.2529896    0.0696116   -0.0686275    0.1031438    0.9922961
   0.0130159   -0.2520888    0.0694837    0.1039817    0.2303904    0.9675268
   0.0115306   -0.2511998    0.0691795   -0.2633746    0.2751758    0.9246146
   0.0112996   -0.2504719    0.0688335   -0.1937755    0.3400495    0.9202268
   0.0101654   -0.2505057    0.0685804   -0.2910151    0.2668968    0.9187363
   0.0125304   -0.2517968    0.0694447    0.0203757    0.2578455    0.9659713
   0.0118872   -0.2512090    0.0692655   -0.0680928    0.3348267    0.9398162
   0.0109569   -0.2533108    0.0574756    0.7566479   -0.4616838   -0.4629602
   0.0109633   -0.2534827    0.0576845    0.6744425   -0.5126280   -0.5313567
   0.0111792   -0.2529898    0.0576792    0.8687906   -0.3109112   -0.3854052
   0.0111612   -0.2517812    0.0570850    0.8183296   -0.1245365   -0.5610947
   0.0111480   -0.2527944    0.0574750    0.8451477   -0.2742738   -0.4588020
   0.0111004   -0.2525837    0.0572733    0.8076901   -0.2330924   -0.5415761
   0.0127329   -0.2483261    0.0596811    0.5717307    0.4982977   -0.6517848
   0.0112478   -0.2485588    0.0583000    0.5132563    0.4427081   -0.7352398
   0.0131417   -0.2483476    0.0600664    0.6864499    0.4095893   -0.6008520
   0.0133461   -0.2481709    0.0604401    0.7040018    0.4441870   -0.5541474
   0.0110221   -0.2508852    0.0570465    0.6931254    0.3412985   -0.6348957
   0.0110622   -0.2515239    0.0568916    0.8520174   -0.0673728   -0.5191602
   0.0109776   -0.2513465    0.0567822    0.7852246    0.1768410   -0.5934219
   0.0106295   -0.2504603    0.0569843    0.6226986    0.3900247   -0.6783267
   0.0103288   -0.2494781    0.0570730    0.6077152    0.3576731   -0.7090502
   0.0102351   -0.2479868    0.0580641    0.4790230    0.5273926   -0.7017079
   0.0134898   -0.2479226    0.0608766    0.7552364    0.4852351   -0.4406415
   0.0130910   -0.2472750    0.0610731    0.6732078    0.6261174   -0.3934060
   0.0133496   -0.2471523    0.0619039    0.6877397    0.6817068   -0.2495794
   0.0129760   -0.2470382    0.0613538    0.6344336    0.6935435   -0.3413083
   0.0131630   -0.2465028    0.0654528    0.6644619    0.6967611    0.2702118
   0.0133345   -0.2468655    0.0659019    0.5588932    0.7314886    0.3905928
   0.0137779   -0.2471949    0.0658629    0.5895116    0.7880352    0.1774162
   0.0127740   -0.2462453    0.0626103    0.6634528    0.7018107   -0.2594075
   0.0126567   -0.2460304    0.0629658    0.5557844    0.8041600   -0.2107852
   0.0124814   -0.2458847    0.0632744    0.4510299    0.8774202   -0.1634189
   0.0125577   -0.2458659    0.0635885    0.3800939    0.9249433   -0.0029292
   0.0127025   -0.2461225    0.0652246    0.4108482    0.8935036    0.1812596
   0.0129590   -0.2462478    0.0652320    0.5026712    0.8313349    0.2370735
   0.0150108   -0.2489699    0.0665050    0.9101416    0.2734083    0.3112717
   0.0148894   -0.2487146    0.0665913    0.8380101    0.3953010    0.3761331
   0.0142128   -0.2476730    0.0663259    0.6651488    0.6993184    0.2617840
   0.0143574   -0.2480677    0.0667537    0.6429956    0.6006475    0.4751624
   0.0124736   -0.2513566    0.0692849    0.1527895    0.3904763    0.9078456
   0.0132330   -0.2500939    0.0684872    0.3400865    0.4200840    0.8413505
   0.0135952   -0.2478296    0.0672427    0.5126780    0.5996861    0.6144411
   0.0130573   -0.2498812    0.0684541    0.3503787    0.4174652    0.8384256
   0.0128546   -0.2496493    0.0684330    0.2751851    0.3912662    0.8781708
   0.0130851   -0.2487703    0.0681125    0.3642317    0.4099871    0.8362092
   0.0138268   -0.2485425    0.0675464    0.4603387    0.4542409    0.7627277
   0.0130808   -0.2476534    0.0674795    0.4596491    0.5287761    0.7135255
   0.0098653   -0.2528136    0.0565691   -0.1480719   -0.7440841   -0.6514704
   0.0075514   -0.2524625    0.0564311   -0.0735258   -0.5936480   -0.8013589
   0.0081960   -0.2521489    0.0561658   -0.0530080   -0.5522440   -0.8319957
   0.0097403   -0.2523969    0.0561563   -0.1540032   -0.6143391   -0.7738672
   0.0091883   -0.2521921    0.0561108   -0.0823057   -0.5189107   -0.8508569
   0.0100761   -0.2530605    0.0567953   -0.1190252   -0.7289415   -0.6741493
   0.0102881   -0.2533072    0.0570219    0.1028449   -0.7131552   -0.6934209
   0.0105418   -0.2535053    0.0572814    0.1795487   -0.7313146   -0.6579827
   0.0065371   -0.2526653    0.0566536   -0.0538988   -0.6264936   -0.7775608
   0.0105903   -0.2534980    0.0572969    0.4673113   -0.6504841   -0.5987409
   0.0060364   -0.2529650    0.0569618   -0.1628881   -0.6224756   -0.7655009
   0.0040725   -0.2573679    0.0627432    0.4438430   -0.8868676   -0.1283323
   0.0036568   -0.2574548    0.0643154    0.6369570   -0.6615453    0.3957822
   0.0035712   -0.2577360    0.0638783    0.6233194   -0.7627666    0.1722210
   0.0037310   -0.2569069    0.0648719    0.6891182   -0.5849245    0.4277610
   0.0042314   -0.2555608    0.0659028    0.6444471   -0.6412949    0.4164479
   0.0028774   -0.2581706    0.0635032    0.3604208   -0.9295010   -0.0782605
   0.0033987   -0.2577785    0.0629564    0.4488110   -0.8564194   -0.2551754
   0.0042616   -0.2553554    0.0662909    0.6316870   -0.6649582    0.3984998
   0.0044268   -0.2549920    0.0665170    0.5997133   -0.6474031    0.4703330
   0.0049667   -0.2546582    0.0662803    0.5715288   -0.7235427    0.3870928
   0.0039788   -0.2570758    0.0615943    0.1344278   -0.8604568   -0.4914705
   0.0039372   -0.2571867    0.0617906    0.2228130   -0.8731546   -0.4335383
   0.0033338   -0.2574054    0.0619667    0.2780978   -0.8640707   -0.4195753
   0.0032553   -0.2563955    0.0606933    0.0363907   -0.6822287   -0.7302327
   0.0031539   -0.2565838    0.0608674    0.0192531   -0.7507865   -0.6602643
   0.0057679   -0.2534855    0.0575135   -0.1759580   -0.6492093   -0.7399771
   0.0051656   -0.2550239    0.0592305   -0.2224098   -0.7226563   -0.6544477
   0.0051716   -0.2546680    0.0588230   -0.2701151   -0.6898642   -0.6716586
   0.0049767   -0.2537721    0.0580404   -0.2806995   -0.6573844   -0.6993236
   0.0040122   -0.2544668    0.0591947   -0.1175720   -0.4908991   -0.8632467
   0.0033506   -0.2549527    0.0593764   -0.0105856   -0.4892433   -0.8720831
   0.0035252   -0.2552425    0.0595737    0.0020082   -0.6324207   -0.7746225
   0.0041106   -0.2542833    0.0590174   -0.3854131   -0.6038171   -0.6977547
   0.0032045   -0.2559551    0.0603102   -0.0258129   -0.6297776   -0.7763465
   0.0032707   -0.2557467    0.0601364   -0.3330856   -0.5708086   -0.7504875
   0.0036275   -0.2556859    0.0599685   -0.0412302   -0.7103143   -0.7026761
   0.0033493   -0.2555853    0.0599442   -0.3267349   -0.6911749   -0.6446096
   0.0062737   -0.2541114    0.0656538    0.4051374   -0.8989884    0.1663836
   0.0062750   -0.2541109    0.0656544    0.2777576   -0.9578439    0.0733880
   0.0049048   -0.2543706    0.0669057    0.4775861   -0.7375723    0.4773872
   0.0060097   -0.2540934    0.0659839    0.2753417   -0.8704712    0.4080035
   0.0057391   -0.2540894    0.0663410    0.4491035   -0.8271496    0.3378308
   0.0064674   -0.2529584    0.0675623   -0.0386728   -0.4895405    0.8711225
   0.0071501   -0.2529699    0.0675710    0.0390034   -0.6487277    0.7600205
   0.0069356   -0.2528162    0.0676639   -0.0531299   -0.4111881    0.9100008
   0.0078323   -0.2529855    0.0675839    0.0026176   -0.6970512    0.7170166
   0.0071922   -0.2529937    0.0675445    0.0367635   -0.6523512    0.7570247
   0.0076166   -0.2528344    0.0676817   -0.1048828   -0.4837662    0.8688900
   0.0074083   -0.2526673    0.0677486   -0.1078853   -0.3957804    0.9119861
   0.0074012   -0.2526754    0.0677433   -0.0056727   -0.4932491    0.8698696
   0.0052024   -0.2540721    0.0670372    0.3332381   -0.6707700    0.6625859
   0.0054562   -0.2537791    0.0672333    0.2984038   -0.6108846    0.7333316
   0.0058948   -0.2535403    0.0672514    0.2288730   -0.6637650    0.7120626
   0.0059923   -0.2531164    0.0674917    0.1472057   -0.4180206    0.8964314
   0.0060328   -0.2530631    0.0675054    0.0604253   -0.3417277    0.9378545
   0.0062605   -0.2527844    0.0676196   -0.0648849   -0.3386940    0.9386566
   0.0091895   -0.2526956    0.0681196   -0.2866353   -0.5039216    0.8148026
   0.0080798   -0.2527099    0.0678100   -0.1320750   -0.5288052    0.8384040
   0.0085974   -0.2520959    0.0681552   -0.2207197   -0.1563708    0.9627206
   0.0083322   -0.2524208    0.0680138   -0.2213076   -0.3303458    0.9175481
   0.0084060   -0.2518439    0.0680933   -0.2625797    0.0402504    0.9640704
   0.0086300   -0.2505967    0.0680312   -0.3001537    0.1492024    0.9421499
   0.0093911   -0.2500567    0.0681438   -0.2843819    0.2890356    0.9141036
   0.0117896   -0.2502700    0.0688135   -0.0893966    0.3951738    0.9142461
   0.0108042   -0.2501468    0.0686206   -0.2017226    0.4870703    0.8497473
   0.0113071   -0.2499163    0.0685674   -0.2186599    0.4394171    0.8712637
   0.0119897   -0.2499682    0.0687164   -0.0286411    0.3814397    0.9239499
   0.0118303   -0.2492738    0.0684223   -0.0438093    0.3668139    0.9292622
   0.0098939   -0.2499220    0.0682073   -0.1809955    0.5540593    0.8125632
   0.0109301   -0.2531195    0.0572706    0.7290670   -0.4183169   -0.5417308
   0.0105846   -0.2519691    0.0562804    0.7344530   -0.2843340   -0.6162247
   0.0107696   -0.2525872    0.0568143    0.7076993   -0.3070452   -0.6363058
   0.0108942   -0.2529833    0.0571471    0.6983400   -0.3540801   -0.6220519
   0.0108686   -0.2528966    0.0570710    0.6642792   -0.3788754   -0.6443497
   0.0110964   -0.2479080    0.0586246    0.5000139    0.4911804   -0.7132516
   0.0121796   -0.2472809    0.0600080    0.5464948    0.5821884   -0.6019968
   0.0110712   -0.2468032    0.0596338    0.4813072    0.6584641   -0.5785917
   0.0111280   -0.2474827    0.0589512    0.4912439    0.5708900   -0.6578480
   0.0131237   -0.2475873    0.0606517    0.6584409    0.5623203   -0.5002513
   0.0108727   -0.2511825    0.0567143    0.7994041    0.2130593   -0.5617463
   0.0105184   -0.2509378    0.0564509    0.6180274    0.5274561   -0.5829513
   0.0106439   -0.2512125    0.0563566    0.7519512    0.3467242   -0.5606708
   0.0108090   -0.2516492    0.0564839    0.8161246   -0.0096676   -0.5777951
   0.0102084   -0.2508362    0.0562602    0.5375364    0.4205223   -0.7309005
   0.0098853   -0.2499029    0.0564207    0.6436261    0.3612949   -0.6746935
   0.0097154   -0.2488536    0.0569184    0.5641243    0.4841327   -0.6688641
   0.0087551   -0.2482209    0.0567152    0.4696793    0.5270118   -0.7082795
   0.0098988   -0.2464081    0.0592389    0.3591867    0.7141012   -0.6008697
   0.0106236   -0.2468291    0.0592224    0.4160325    0.6485307   -0.6374361
   0.0094200   -0.2476003    0.0577602    0.4700769    0.6130762   -0.6349530
   0.0127906   -0.2471464    0.0608328    0.5839849    0.6800212   -0.4433202
   0.0125653   -0.2463421    0.0619298    0.6235965    0.7147845   -0.3165605
   0.0119776   -0.2460732    0.0614704    0.5212594    0.7735861   -0.3603515
   0.0126602   -0.2463832    0.0659530    0.5152455    0.7131949    0.4752632
   0.0132059   -0.2471560    0.0663085    0.3534195    0.7393768    0.5730764
   0.0135337   -0.2471259    0.0661190    0.3766649    0.8143119    0.4416104
   0.0137870   -0.2472542    0.0661241    0.5332489    0.8053727    0.2588832
   0.0120187   -0.2457853    0.0623443    0.4193804    0.8890867   -0.1834254
   0.0122199   -0.2457669    0.0632623    0.3251925    0.9428062   -0.0732557
   0.0116681   -0.2456320    0.0634709    0.1834317    0.9830064   -0.0071570
   0.0117748   -0.2456519    0.0640611    0.2257796    0.9713823    0.0737564
   0.0121472   -0.2458525    0.0649218    0.2735786    0.9411112    0.1986568
   0.0121411   -0.2461443    0.0659311    0.3277472    0.8811705    0.3407643
   0.0139843   -0.2475892    0.0665927    0.4771923    0.7735823    0.4169627
   0.0127819   -0.2503133    0.0687584    0.2730600    0.3829226    0.8825013
   0.0124812   -0.2502651    0.0688034    0.1429003    0.4115638    0.9001082
   0.0134313   -0.2475285    0.0670531    0.4713052    0.7549439    0.4559947
   0.0131975   -0.2473785    0.0670629    0.4591939    0.8159193    0.3513071
   0.0129133   -0.2473555    0.0672877    0.4318412    0.7637850    0.4797350
   0.0128262   -0.2486422    0.0681059    0.0986208    0.3280526    0.9394974
   0.0126200   -0.2473452    0.0675043    0.4162697    0.6531318    0.6325649
   0.0125355   -0.2475125    0.0676924    0.2583915    0.4853312    0.8352768
   0.0101653   -0.2528878    0.0566109    0.0985879   -0.6623356   -0.7426924
   0.0099427   -0.2526525    0.0563765    0.0300903   -0.6923004   -0.7209818
   0.0074662   -0.2516611    0.0559189   -0.1130084   -0.4482151   -0.8867538
   0.0067084   -0.2512758    0.0559041   -0.2201197   -0.3158420   -0.9229253
   0.0065876   -0.2520095    0.0562417   -0.1572939   -0.4668381   -0.8702418
   0.0086501   -0.2514130    0.0557600   -0.0055948   -0.3275762   -0.9448082
   0.0093863   -0.2518779    0.0559579   -0.0702979   -0.2943445   -0.9531104
   0.0095984   -0.2520694    0.0559847   -0.2231471   -0.3907131   -0.8930558
   0.0100492   -0.2524605    0.0562054    0.2081112   -0.6052444   -0.7683547
   0.0098541   -0.2521950    0.0559918    0.0241857   -0.4552479   -0.8900362
   0.0103967   -0.2531107    0.0568534    0.1840828   -0.6630914   -0.7255503
   0.0105583   -0.2533027    0.0570924    0.4225588   -0.5720025   -0.7030343
   0.0105138   -0.2530948    0.0568903    0.4080582   -0.5932602   -0.6939242
   0.0107131   -0.2532361    0.0571622    0.5574405   -0.5058071   -0.6583459
   0.0053885   -0.2523808    0.0567799   -0.3234787   -0.4264400   -0.8446955
   0.0056758   -0.2530310    0.0571264   -0.2634487   -0.6002195   -0.7552029
   0.0034330   -0.2577743    0.0641121    0.5175957   -0.8127750    0.2673789
   0.0027875   -0.2577493    0.0649418    0.4272618   -0.8549329    0.2941720
   0.0027840   -0.2574801    0.0655140    0.5911784   -0.7088113    0.3848306
   0.0035395   -0.2564336    0.0658993    0.6498870   -0.5865190    0.4833656
   0.0029820   -0.2571373    0.0657213    0.6750922   -0.5984427    0.4314126
   0.0032991   -0.2560172    0.0666020    0.5375785   -0.5582922    0.6319170
   0.0030538   -0.2563955    0.0665016    0.5541224   -0.5284264    0.6432060
   0.0040932   -0.2553662    0.0665294    0.5610791   -0.6187758    0.5498243
   0.0027600   -0.2579007    0.0624525    0.2611869   -0.9034107   -0.3400448
   0.0026744   -0.2579871    0.0626776    0.1472944   -0.9562997   -0.2525771
   0.0025254   -0.2582279    0.0636740   -0.0642368   -0.9958405   -0.0646173
   0.0027438   -0.2581903    0.0637466    0.2814650   -0.9457081    0.1625228
   0.0028032   -0.2577742    0.0622354    0.2790769   -0.8305401   -0.4819950
   0.0046675   -0.2546777    0.0667048    0.5036278   -0.6940687    0.5144197
   0.0044258   -0.2546384    0.0669480    0.4638737   -0.5978957    0.6537139
   0.0044354   -0.2546282    0.0669518    0.3915242   -0.6322239    0.6685819
   0.0033556   -0.2570933    0.0615430    0.1161335   -0.7946369   -0.5958735
   0.0030733   -0.2567479    0.0610578    0.0043460   -0.7723284   -0.6352086
   0.0028063   -0.2576104    0.0620253    0.2048402   -0.7461477   -0.6334857
   0.0029257   -0.2563579    0.0606270   -0.1831571   -0.6305489   -0.7542291
   0.0030308   -0.2561646    0.0604564   -0.1471011   -0.5422438   -0.8272442
   0.0028439   -0.2565226    0.0608170   -0.2448581   -0.6943970   -0.6766515
   0.0055472   -0.2531870    0.0573084   -0.1766858   -0.6179286   -0.7661243
   0.0054228   -0.2529027    0.0571215   -0.2321202   -0.5811023   -0.7800258
   0.0048914   -0.2533094    0.0576585   -0.3596602   -0.5980245   -0.7162480
   0.0037290   -0.2543753    0.0591648   -0.0580283   -0.3851850   -0.9210131
   0.0037365   -0.2538051    0.0588561   -0.3728324   -0.5028693   -0.7798196
   0.0032358   -0.2551551    0.0595407   -0.2227597   -0.6423059   -0.7333630
   0.0030718   -0.2548541    0.0593510   -0.2651457   -0.5306922   -0.8050240
   0.0032110   -0.2546225    0.0592065   -0.0450413   -0.3635628   -0.9304802
   0.0034224   -0.2554312    0.0597472   -0.1970686   -0.6906969   -0.6957742
   0.0049286   -0.2526344    0.0571196   -0.4511051   -0.4957959   -0.7420853
   0.0042831   -0.2533115    0.0580761   -0.5232618   -0.5006315   -0.6896123
   0.0040314   -0.2538130    0.0586410   -0.4907974   -0.5336334   -0.6887331
   0.0031582   -0.2559466    0.0603026   -0.2380591   -0.4999630   -0.8326853
   0.0029932   -0.2556863    0.0602535   -0.5745773   -0.2721209   -0.7718880
   0.0030618   -0.2555691    0.0601651   -0.6547406   -0.4129373   -0.6330858
   0.0031253   -0.2554243    0.0599616   -0.5842166   -0.6256297   -0.5169898
   0.0031654   -0.2553063    0.0597397   -0.4473464   -0.6959520   -0.5617224
   0.0046996   -0.2543056    0.0670981    0.2805456   -0.5804799    0.7644195
   0.0065336   -0.2524384    0.0677241   -0.1179668   -0.1160596    0.9862120
   0.0072240   -0.2524586    0.0677980   -0.1400021   -0.2105832    0.9674989
   0.0081348   -0.2522184    0.0680231   -0.2245568   -0.2143094    0.9506028
   0.0076736   -0.2523419    0.0678892   -0.1752463   -0.2496353    0.9523502
   0.0074793   -0.2521327    0.0678854   -0.2043845   -0.1199901    0.9715088
   0.0053328   -0.2537137    0.0673157    0.2693440   -0.5478299    0.7920456
   0.0052283   -0.2536625    0.0673908    0.2178879   -0.4891959    0.8445190
   0.0053569   -0.2534953    0.0674220    0.1733051   -0.3486703    0.9210832
   0.0059026   -0.2527940    0.0675960   -0.0164384   -0.2095120    0.9776679
   0.0060602   -0.2525925    0.0676459   -0.1018127   -0.1527493    0.9830065
   0.0079453   -0.2519990    0.0679997   -0.2319321    0.0230003    0.9724600
   0.0080440   -0.2508810    0.0678714   -0.2680844    0.2105591    0.9401040
   0.0084145   -0.2498938    0.0678458   -0.2535266    0.2844920    0.9245478
   0.0078229   -0.2501854    0.0676866   -0.3071438    0.1682157    0.9366783
   0.0104160   -0.2497113    0.0681499   -0.3050914    0.5798509    0.7554417
   0.0114065   -0.2492386    0.0683316   -0.2981288    0.3425133    0.8909567
   0.0112550   -0.2484090    0.0681016   -0.1537164    0.1811957    0.9713596
   0.0089657   -0.2496068    0.0678309   -0.1221950    0.5379736    0.8340580
   0.0103934   -0.2496004    0.0680396   -0.2696501    0.5653206    0.7795521
   0.0097651   -0.2494398    0.0677715   -0.1483347    0.5232722    0.8391561
   0.0094193   -0.2494312    0.0677402   -0.0798793    0.5341898    0.8415822
   0.0103546   -0.2525863    0.0564617    0.5098268   -0.4690573   -0.7211532
   0.0102390   -0.2521665    0.0560868    0.4880584   -0.3567257   -0.7965838
   0.0105192   -0.2518011    0.0561573    0.6964687   -0.1496904   -0.7018006
   0.0104820   -0.2529724    0.0567786    0.4396700   -0.5028508   -0.7441985
   0.0117335   -0.2462528    0.0609128    0.4799845    0.7217081   -0.4987507
   0.0109851   -0.2458547    0.0609063    0.3563216    0.8543200   -0.3783810
   0.0103240   -0.2463825    0.0595440    0.4164021    0.7357011   -0.5341846
   0.0106473   -0.2513342    0.0563015    0.7707737    0.1216992   -0.6253776
   0.0105964   -0.2512523    0.0562670    0.6415531    0.3502922   -0.6824258
   0.0104072   -0.2510319    0.0562416    0.4914699    0.4800695   -0.7266296
   0.0092816   -0.2496769    0.0560373    0.5044198    0.3593753   -0.7851178
   0.0097527   -0.2508674    0.0560031    0.4093567    0.1963974   -0.8909855
   0.0099663   -0.2510994    0.0560102    0.3004777    0.3291575   -0.8951919
   0.0093496   -0.2488118    0.0566663    0.4609248    0.5076500   -0.7279009
   0.0081120   -0.2481002    0.0565172    0.2680351    0.5619858   -0.7825146
   0.0087854   -0.2477981    0.0570468    0.3901660    0.6178537   -0.6826619
   0.0092556   -0.2459602    0.0595615    0.2031434    0.8304223   -0.5187789
   0.0092526   -0.2466387    0.0585819    0.2986638    0.7430293   -0.5989218
   0.0105490   -0.2458672    0.0605040    0.2831747    0.8652042   -0.4138040
   0.0095698   -0.2460162    0.0596153    0.2721253    0.8588299   -0.4340035
   0.0083786   -0.2470903    0.0576036    0.2494020    0.7679983   -0.5898960
   0.0083941   -0.2474404    0.0572329    0.2632480    0.6980164   -0.6659381
   0.0116519   -0.2458647    0.0616427    0.2850412    0.9252434   -0.2503520
   0.0131531   -0.2472878    0.0665209    0.4380678    0.8088999    0.3921448
   0.0127268   -0.2469392    0.0665729    0.5895898    0.6987315    0.4051644
   0.0129283   -0.2471271    0.0665377    0.5994305    0.7413663    0.3017600
   0.0123822   -0.2463562    0.0661811    0.3349438    0.7748882    0.5360606
   0.0124522   -0.2469073    0.0668042    0.4086320    0.7669978    0.4947062
   0.0134413   -0.2473736    0.0665543    0.2836429    0.8812596    0.3780586
   0.0118237   -0.2456615    0.0626380    0.2626963    0.9561388   -0.1295730
   0.0118769   -0.2456715    0.0629330    0.2769862    0.9607346    0.0163587
   0.0109725   -0.2455261    0.0630571    0.1208002    0.9924409    0.0216419
   0.0111287   -0.2455572    0.0639410    0.0032949    0.9938961    0.1102711
   0.0107376   -0.2455182    0.0635739   -0.0245231    0.9980896    0.0567078
   0.0115333   -0.2456522    0.0645724    0.1349113    0.9793404    0.1506363
   0.0116971   -0.2457962    0.0651201    0.1857892    0.9620730    0.1997444
   0.0115683   -0.2459656    0.0658682    0.1150748    0.9327229    0.3417393
   0.0115674   -0.2458958    0.0656139    0.0978009    0.9607433    0.2596292
   0.0121138   -0.2462447    0.0661644    0.2213653    0.8175547    0.5316029
   0.0134403   -0.2474460    0.0668071    0.3998917    0.8817148    0.2503311
   0.0131771   -0.2473305    0.0667935    0.4411062    0.8848555    0.1498537
   0.0129355   -0.2471889    0.0667973    0.4842404    0.8300674    0.2765850
   0.0124007   -0.2471087    0.0672713    0.3195802    0.8506020    0.4175461
   0.0112393   -0.2479604    0.0680174    0.0706394    0.2921577    0.9537578
   0.0126514   -0.2483959    0.0680289    0.1527754    0.3549929    0.9223013
   0.0123654   -0.2472193    0.0674978    0.2127852    0.7852107    0.5815209
   0.0123980   -0.2477418    0.0678385    0.1310678    0.4104202    0.9024281
   0.0119952   -0.2472961    0.0676551    0.0920512    0.6081701    0.7884515
   0.0103181   -0.2526402    0.0564771    0.3069829   -0.5758967   -0.7576968
   0.0075549   -0.2509965    0.0556741   -0.1157711   -0.2071091   -0.9714437
   0.0064017   -0.2517696    0.0561720   -0.2695822   -0.3567021   -0.8944770
   0.0062659   -0.2504559    0.0558823   -0.3644994   -0.0585550   -0.9293608
   0.0053976   -0.2513198    0.0564107   -0.4106646   -0.1607380   -0.8975065
   0.0067008   -0.2502921    0.0557353   -0.2571463   -0.0268240   -0.9660001
   0.0077998   -0.2506433    0.0556121   -0.0267518   -0.1045803   -0.9941566
   0.0086727   -0.2508785    0.0556501    0.1070473   -0.0979699   -0.9894154
   0.0095412   -0.2516445    0.0558791   -0.1480000   -0.1182405   -0.9818937
   0.0095060   -0.2512172    0.0558688    0.1376437    0.0330031   -0.9899318
   0.0089179   -0.2510328    0.0557160    0.2090703   -0.0987997   -0.9728968
   0.0097742   -0.2517948    0.0558690   -0.0507480   -0.1601000   -0.9857954
   0.0102252   -0.2521858    0.0560898    0.3460513   -0.4651523   -0.8147895
   0.0100670   -0.2518772    0.0559053    0.1949879   -0.2683295   -0.9433870
   0.0046292   -0.2520697    0.0570168   -0.4791528   -0.2832267   -0.8307799
   0.0046717   -0.2520001    0.0569807   -0.4809226   -0.2382308   -0.8437769
   0.0048902   -0.2516257    0.0567142   -0.4430925   -0.1922133   -0.8756272
   0.0054361   -0.2517663    0.0565016   -0.2989766   -0.1556392   -0.9414826
   0.0056543   -0.2519332    0.0564802   -0.3031093   -0.3111532   -0.9007266
   0.0029453   -0.2580166    0.0641636    0.3346995   -0.8956395    0.2929269
   0.0025136   -0.2577529    0.0653136    0.4116437   -0.8592713    0.3036483
   0.0023063   -0.2579232    0.0649033    0.3461935   -0.9380212    0.0163177
   0.0023052   -0.2579233    0.0649021    0.3915021   -0.9196672   -0.0306314
   0.0025603   -0.2579684    0.0646170    0.0799078   -0.9569557    0.2790171
   0.0026286   -0.2575035    0.0657501    0.6092769   -0.7175889    0.3374133
   0.0025095   -0.2577528    0.0653193    0.3641385   -0.8911928    0.2705155
   0.0027695   -0.2567623    0.0664122    0.6652228   -0.5365874    0.5191845
   0.0024671   -0.2571958    0.0664842    0.7090164   -0.4730175    0.5230202
   0.0024720   -0.2575223    0.0659846    0.6697650   -0.6733945    0.3129772
   0.0030943   -0.2559466    0.0667862    0.3778481   -0.4356456    0.8169723
   0.0036137   -0.2556688    0.0666472    0.4611360   -0.5223319    0.7173026
   0.0034135   -0.2555292    0.0668550    0.3295726   -0.4403471    0.8351505
   0.0025216   -0.2558581    0.0670509    0.3070647   -0.2784928    0.9100291
   0.0025867   -0.2567439    0.0666604    0.5796468   -0.3964379    0.7119315
   0.0036513   -0.2552265    0.0669447    0.3236684   -0.4309598    0.8423256
   0.0041637   -0.2549677    0.0668383    0.3814558   -0.5292159    0.7579063
   0.0024906   -0.2579144    0.0623782   -0.1134506   -0.8803911   -0.4604786
   0.0024758   -0.2580028    0.0626200   -0.1572492   -0.9462497   -0.2826380
   0.0024463   -0.2581094    0.0631361   -0.2945300   -0.9387593   -0.1788382
   0.0022403   -0.2580671    0.0633897   -0.5626389   -0.8189835   -0.1127097
   0.0025362   -0.2581654    0.0639915    0.0635614   -0.9650902    0.2540882
   0.0022908   -0.2581500    0.0639366   -0.3568585   -0.9301122    0.0868526
   0.0025381   -0.2577883    0.0621620   -0.0492650   -0.7983003   -0.6002413
   0.0044310   -0.2546251    0.0669553    0.2653116   -0.5333139    0.8032348
   0.0029956   -0.2569091    0.0612503   -0.0634164   -0.7573894   -0.6498766
   0.0028292   -0.2572410    0.0616283    0.0094649   -0.7434556   -0.6687183
   0.0027735   -0.2566735    0.0610160   -0.2910418   -0.7125693   -0.6383884
   0.0026192   -0.2576258    0.0619709   -0.0004297   -0.7241866   -0.6896039
   0.0027261   -0.2574299    0.0618017    0.1316376   -0.6847370   -0.7168032
   0.0027434   -0.2572196    0.0616164    0.0750204   -0.6901456   -0.7197715
   0.0026930   -0.2562055    0.0606381   -0.5085627   -0.4634287   -0.7256706
   0.0028046   -0.2560062    0.0604717   -0.5110693   -0.3037578   -0.8040767
   0.0029399   -0.2557797    0.0603239   -0.5065714   -0.2777242   -0.8162443
   0.0026091   -0.2563727    0.0608264   -0.5509666   -0.5125249   -0.6586000
   0.0030583   -0.2533278    0.0589036   -0.3021502   -0.2970765   -0.9057874
   0.0037225   -0.2532591    0.0585307   -0.5044913   -0.3716084   -0.7793560
   0.0029871   -0.2550234    0.0595381   -0.4909433   -0.6309722   -0.6007069
   0.0028458   -0.2546938    0.0593674   -0.5568930   -0.4637109   -0.6890880
   0.0029559   -0.2544967    0.0591997   -0.3604549   -0.2846715   -0.8882761
   0.0043299   -0.2520635    0.0572303   -0.6227460   -0.3093984   -0.7186515
   0.0042556   -0.2527817    0.0577401   -0.6049912   -0.4225445   -0.6748643
   0.0027948   -0.2516703    0.0584532   -0.6271279   -0.2660132   -0.7320844
   0.0028792   -0.2556549    0.0603656   -0.6743158   -0.1097776   -0.7302377
   0.0028047   -0.2555160    0.0604106   -0.7312241   -0.2029314   -0.6512527
   0.0028955   -0.2553409    0.0602278   -0.7253153   -0.4902220   -0.4833219
   0.0029283   -0.2552310    0.0600004   -0.7072922   -0.5915678   -0.3870210
   0.0029462   -0.2551397    0.0597606   -0.6491008   -0.6552105   -0.3864807
   0.0045677   -0.2542259    0.0671731    0.2170915   -0.4925818    0.8427541
   0.0047467   -0.2538385    0.0673509    0.0272061   -0.3932156    0.9190437
   0.0046014   -0.2540155    0.0672782    0.0873983   -0.3863638    0.9181963
   0.0072341   -0.2518135    0.0678106   -0.2101087    0.0721079    0.9750153
   0.0063436   -0.2522158    0.0676868   -0.1665068    0.0872421    0.9821732
   0.0050159   -0.2535044    0.0674752    0.0224514   -0.2606421    0.9651744
   0.0056630   -0.2526497    0.0676016   -0.0870663   -0.0614211    0.9943073
   0.0058677   -0.2523791    0.0676340   -0.1500665    0.0049798    0.9886634
   0.0077119   -0.2513363    0.0678644   -0.2305206    0.1393555    0.9630370
   0.0073164   -0.2508806    0.0676874   -0.2440864    0.2324116    0.9414917
   0.0077068   -0.2508378    0.0677592   -0.2512379    0.2667523    0.9304422
   0.0083095   -0.2495231    0.0677034   -0.1932253    0.3533732    0.9153094
   0.0075326   -0.2505769    0.0676627   -0.2650640    0.1795382    0.9473685
   0.0068338   -0.2495377    0.0672852   -0.2700965    0.1673761    0.9481736
   0.0104817   -0.2494673    0.0679925   -0.3933850    0.3559548    0.8476700
   0.0108889   -0.2484353    0.0679969   -0.3449382    0.0375313    0.9378747
   0.0108956   -0.2479560    0.0680107   -0.1701496    0.1246365    0.9775044
   0.0091200   -0.2494002    0.0676786   -0.0846127    0.4782310    0.8741486
   0.0102085   -0.2491870    0.0677657   -0.3217284    0.2765153    0.9055552
   0.0096206   -0.2491705    0.0676245   -0.1263524    0.2634754    0.9563555
   0.0092926   -0.2490870    0.0675800   -0.0994848    0.2650155    0.9590983
   0.0100942   -0.2518755    0.0559129    0.3828715   -0.2353516   -0.8933191
   0.0104686   -0.2516949    0.0560906    0.5836542   -0.1076587   -0.8048338
   0.0108561   -0.2456551    0.0615376    0.1325119    0.9725198   -0.1914311
   0.0109104   -0.2456628    0.0615478    0.2202141    0.9564603   -0.1915450
   0.0105153   -0.2456271    0.0611780    0.1944114    0.9581391   -0.2101755
   0.0103568   -0.2515097    0.0560054    0.4915220    0.1068702   -0.8642829
   0.0101664   -0.2512920    0.0559853    0.3227065    0.3041195   -0.8963101
   0.0092229   -0.2501769    0.0558406    0.3991582    0.2081966   -0.8929316
   0.0086447   -0.2495428    0.0558131    0.2539399    0.2807307   -0.9255835
   0.0088901   -0.2492688    0.0560463    0.4020395    0.4453222   -0.8000327
   0.0087689   -0.2502771    0.0556687    0.2505983    0.0817363   -0.9646345
   0.0096994   -0.2514283    0.0558761    0.0787114    0.1149957   -0.9902427
   0.0086918   -0.2490719    0.0560625    0.3217439    0.5130826   -0.7957557
   0.0074107   -0.2484789    0.0561213   -0.0194890    0.5347804   -0.8447663
   0.0074916   -0.2480852    0.0564224    0.0231853    0.6391107   -0.7687652
   0.0081383   -0.2476901    0.0568698    0.1536842    0.6966346   -0.7007720
   0.0088071   -0.2460346    0.0593213    0.1092026    0.8668161   -0.4865230
   0.0091209   -0.2457644    0.0599035    0.1325001    0.9194893   -0.3701123
   0.0091409   -0.2456761    0.0602353    0.1224612    0.9526597   -0.2782855
   0.0100684   -0.2456599    0.0607844    0.1400095    0.9559636   -0.2579358
   0.0082544   -0.2462038    0.0589101    0.0799091    0.8554889   -0.5116182
   0.0077383   -0.2470066    0.0575523    0.0355341    0.8326660   -0.5526343
   0.0079388   -0.2471553    0.0573677    0.0963154    0.7422891   -0.6631216
   0.0070163   -0.2473949    0.0570926   -0.0543936    0.7335690   -0.6774348
   0.0112562   -0.2455471    0.0628332    0.1516982    0.9858419   -0.0714379
   0.0120109   -0.2464679    0.0664525    0.2071095    0.7790713    0.5917377
   0.0121250   -0.2469352    0.0669949    0.2340947    0.8262060    0.5124289
   0.0104774   -0.2455342    0.0623558   -0.0028252    0.9996582   -0.0259913
   0.0095569   -0.2456916    0.0634818   -0.1435214    0.9838674    0.1068015
   0.0101204   -0.2458129    0.0649997   -0.1032541    0.9839821    0.1453194
   0.0112241   -0.2457288    0.0650314   -0.0030943    0.9785768    0.2058589
   0.0102155   -0.2455586    0.0628508   -0.0990078    0.9943268    0.0388810
   0.0097916   -0.2459151    0.0654419   -0.1160817    0.9694151    0.2162391
   0.0106207   -0.2459939    0.0659017    0.0139692    0.9531579    0.3021505
   0.0111807   -0.2461506    0.0662576    0.0956014    0.8512942    0.5159055
   0.0115746   -0.2474338    0.0677716    0.1531532    0.4878007    0.8594152
   0.0113258   -0.2473003    0.0677699    0.1968056    0.4643478    0.8635095
   0.0109006   -0.2474415    0.0678837   -0.0661052    0.3576612    0.9315088
   0.0118763   -0.2470987    0.0674292    0.1370426    0.8162143    0.5612607
   0.0119405   -0.2473868    0.0677058    0.0549032    0.5070717    0.8601534
   0.0116868   -0.2472322    0.0676063    0.1171842    0.7026704    0.7017993
   0.0071071   -0.2501842    0.0556474   -0.1525108    0.0094839   -0.9882563
   0.0058498   -0.2503914    0.0560928   -0.4910090   -0.0445918   -0.8700125
   0.0059508   -0.2499800    0.0560210   -0.4479882    0.0607838   -0.8919708
   0.0062084   -0.2496110    0.0559693   -0.3439618    0.1716393   -0.9231632
   0.0050693   -0.2513499    0.0565999   -0.3550000   -0.0523312   -0.9334005
   0.0048993   -0.2511249    0.0566603   -0.4686995   -0.0734823   -0.8802960
   0.0053090   -0.2500200    0.0564126   -0.4888065    0.0135165   -0.8722875
   0.0065797   -0.2495435    0.0558594   -0.2583199    0.2029577   -0.9444993
   0.0081003   -0.2502278    0.0555942    0.0889450    0.0827144   -0.9925961
