NORM_ASCII
2408 4812
   0.0053901   -0.2750682    0.0630973    0.6482626   -0.4956872   -0.5779704
   0.0051542   -0.2751606    0.0629379    0.6449048   -0.6197892   -0.4471679
   0.0048695   -0.2753990    0.0627957    0.6558157   -0.6172013   -0.4347049
   0.0041683   -0.2756851    0.0623026    0.4978886   -0.6100900   -0.6163580
   0.0043355   -0.2757120    0.0625220    0.5614036   -0.6753196   -0.4782984
   0.0044803   -0.2757092    0.0627898    0.5590583   -0.7460666   -0.3617161
   0.0043646   -0.2757116    0.0625753    0.6298997   -0.7007459   -0.3349352
   0.0064618   -0.2708480    0.0645965    0.5923224    0.4436126   -0.6725787
   0.0064805   -0.2709352    0.0645305    0.6199401    0.5615243   -0.5480554
   0.0064622   -0.2706315    0.0646830    0.5472124    0.1370724   -0.8256935
   0.0067366   -0.2703858    0.0648441    0.4446617   -0.2584644   -0.8575967
   0.0075927   -0.2698683    0.0646913    0.0349023   -0.5399770   -0.8409558
   0.0080163   -0.2696302    0.0645462   -0.0853868   -0.3601169   -0.9289913
   0.0069318   -0.2700131    0.0646870    0.2671161   -0.4870673   -0.8315133
   0.0073838   -0.2696662    0.0646083    0.1007857   -0.4279406   -0.8981698
   0.0085011   -0.2694209    0.0644276   -0.1051847   -0.1508635   -0.9829427
   0.0086253   -0.2679667    0.0643255   -0.0496562   -0.0680967   -0.9964422
   0.0092369   -0.2672116    0.0642244   -0.0231760   -0.0736551   -0.9970144
   0.0084764   -0.2664678    0.0641776    0.0623033   -0.0993082   -0.9931043
   0.0086218   -0.2663126    0.0641650    0.0386774   -0.1251804   -0.9913798
   0.0086856   -0.2642759    0.0638557   -0.0347499   -0.2020140   -0.9787660
   0.0087901   -0.2629854    0.0636060   -0.0736203   -0.1409952   -0.9872692
   0.0095981   -0.2643148    0.0637721   -0.0123335   -0.1953364   -0.9806587
   0.0081066   -0.2621379    0.0635433   -0.0912279   -0.1281292   -0.9875527
   0.0104492   -0.2652969    0.0640102    0.0978316   -0.1934823   -0.9762139
   0.0072369   -0.2617201    0.0636020   -0.1546519   -0.1227249   -0.9803170
   0.0078749   -0.2606740    0.0633775   -0.0572771   -0.1812708   -0.9817638
   0.0050338   -0.2609355    0.0639332   -0.3008147   -0.1223361   -0.9458036
   0.0055066   -0.2607365    0.0637633   -0.1886590   -0.1201654   -0.9746630
   0.0061617   -0.2617696    0.0637946   -0.1411558   -0.1015516   -0.9847651
   0.0045228   -0.2732724    0.0732176    0.2273911   -0.6132048    0.7564874
   0.0049386   -0.2738081    0.0727289    0.2246250   -0.6176996    0.7536517
   0.0043021   -0.2729554    0.0735832    0.0867748   -0.6770816    0.7307740
   0.0055856   -0.2746349    0.0718679    0.1197738   -0.7438719    0.6575020
   0.0050540   -0.2751746    0.0710037   -0.0225162   -0.9576829    0.2869434
   0.0053207   -0.2740400    0.0723898    0.2912975   -0.5602759    0.7753945
   0.0054756   -0.2752528    0.0703077    0.0655280   -0.9975173    0.0257951
   0.0057327   -0.2750286    0.0685083    0.1662182   -0.9830993   -0.0767282
   0.0046099   -0.2725722    0.0738299    0.1810310   -0.6259051    0.7585977
   0.0044962   -0.2723893    0.0740006    0.0057988   -0.5840082    0.8117271
   0.0044936   -0.2711850    0.0744918   -0.0368362   -0.1284563    0.9910308
   0.0044443   -0.2717517    0.0743398   -0.0861369   -0.3564132    0.9303494
   0.0044533   -0.2721401    0.0741690   -0.0259259   -0.4854111    0.8739015
   0.0047237   -0.2702263    0.0745154    0.0125261    0.0210674    0.9996996
   0.0053111   -0.2706168    0.0744208    0.2712480   -0.0574102    0.9607958
   0.0057436   -0.2705553    0.0742578    0.3603256    0.0027761    0.9328225
   0.0050276   -0.2693831    0.0743336    0.1481928    0.1402636    0.9789612
   0.0049197   -0.2683071    0.0740972   -0.3430180    0.2024444    0.9172540
   0.0054699   -0.2686208    0.0741608    0.1395445    0.0395112    0.9894272
   0.0053653   -0.2685501    0.0741812    0.0783183   -0.0100626    0.9968776
   0.0052255   -0.2679275    0.0741595   -0.2533633    0.1472450    0.9560993
   0.0066515   -0.2749012    0.0661193    0.3275070   -0.9191811    0.2187358
   0.0059468   -0.2756168    0.0649646    0.4317712   -0.8891027    0.1518881
   0.0055086   -0.2758225    0.0645838    0.4557449   -0.8900117    0.0132573
   0.0069118   -0.2747585    0.0667567    0.2008473   -0.9766721    0.0759734
   0.0070344   -0.2747136    0.0670758    0.0866558   -0.9961920    0.0096019
   0.0073731   -0.2747252    0.0675261    0.0682081   -0.9906697   -0.1179878
   0.0045483   -0.2600228    0.0641456   -0.7078456    0.0825040   -0.7015324
   0.0043042   -0.2597461    0.0645209   -0.8320189    0.1826649   -0.5238112
   0.0047294   -0.2601852    0.0639926   -0.5809465   -0.0207776   -0.8136765
   0.0049011   -0.2597831    0.0638778   -0.5428917    0.0421742   -0.8387431
   0.0053232   -0.2595731    0.0636495   -0.4027305   -0.0119484   -0.9152406
   0.0054883   -0.2602003    0.0637037   -0.2353525   -0.1411501   -0.9616059
   0.0043140   -0.2591041    0.0648209   -0.8824398    0.2466481   -0.4005805
   0.0042727   -0.2582217    0.0657384   -0.9029713    0.3739404   -0.2116871
   0.0044162   -0.2585837    0.0649323   -0.8788188    0.2971094   -0.3733679
   0.0039673   -0.2586894    0.0670198   -0.9414489    0.3325190    0.0557234
   0.0041407   -0.2582351    0.0670623   -0.9259482    0.3756826    0.0385049
   0.0044911   -0.2574354    0.0668354   -0.8897732    0.4541082   -0.0457099
   0.0042929   -0.2583406    0.0686265   -0.8739516    0.4293456    0.2277518
   0.0041931   -0.2581619    0.0673719   -0.9258255    0.3703544    0.0753979
   0.0047113   -0.2583106    0.0694616   -0.7563762    0.4473571    0.4772491
   0.0043613   -0.2608760    0.0704613   -0.8291103    0.1353591    0.5424519
   0.0050838   -0.2592399    0.0706001   -0.7181876    0.3441491    0.6047875
   0.0050798   -0.2602507    0.0710630   -0.7080101    0.2409487    0.6638264
   0.0062219   -0.2664825    0.0737803    0.0670089    0.5444022    0.8361436
   0.0064103   -0.2665823    0.0738222    0.1558666    0.4449186    0.8819031
   0.0067236   -0.2661209    0.0735149    0.0023753    0.5607073    0.8280107
   0.0068607   -0.2659167    0.0733801   -0.1702027    0.5196358    0.8372632
   0.0072177   -0.2651269    0.0731368   -0.5631414    0.2353459    0.7921389
   0.0074705   -0.2657044    0.0734926   -0.4404013    0.2969317    0.8472770
   0.0053673   -0.2674836    0.0741147   -0.3000689    0.2365409    0.9241250
   0.0056096   -0.2676103    0.0741752    0.0436171    0.0115990    0.9989810
   0.0057506   -0.2671658    0.0741333   -0.0916760    0.2714225    0.9580842
   0.0060173   -0.2673247    0.0741424    0.1315642    0.1199567    0.9840230
   0.0061948   -0.2669285    0.0740218    0.2041694    0.3073660    0.9294305
   0.0066619   -0.2639050    0.0725292   -0.8195458   -0.3097442    0.4820823
   0.0067911   -0.2638981    0.0728227   -0.8336399   -0.3791289    0.4016289
   0.0071930   -0.2646098    0.0730100   -0.7842526   -0.1247356    0.6077737
   0.0073067   -0.2647830    0.0731350   -0.6903184    0.0340918    0.7227020
   0.0069588   -0.2640889    0.0729762   -0.7984126   -0.3744198    0.4715370
   0.0069339   -0.2638757    0.0731004   -0.7646482   -0.2770876    0.5818381
   0.0067828   -0.2632217    0.0731091   -0.6884458   -0.0652577    0.7223461
   0.0065863   -0.2621032    0.0728832   -0.5704288    0.1394924    0.8094151
   0.0067405   -0.2623993    0.0730141   -0.5619858    0.0959614    0.8215615
   0.0065158   -0.2600659    0.0723333   -0.5604700    0.2754301    0.7810324
   0.0068377   -0.2612569    0.0728282   -0.5024132    0.2022500    0.8406402
   0.0073284   -0.2603649    0.0729088   -0.4794755    0.2628726    0.8372582
   0.0033501   -0.2764298    0.0627983    0.3254294   -0.8703867   -0.3694898
   0.0039290   -0.2760053    0.0625357    0.5284682   -0.7938286   -0.3009278
   0.0040502   -0.2759650    0.0628703    0.5121805   -0.8210784   -0.2519948
   0.0039694   -0.2766119    0.0640292    0.4677260   -0.8640760   -0.1860243
   0.0042214   -0.2763307    0.0637025    0.4887742   -0.8063226   -0.3330822
   0.0055590   -0.2750970    0.0633126    0.5448325   -0.5646547   -0.6199376
   0.0058414   -0.2749555    0.0634196    0.4752506   -0.6331790   -0.6109183
   0.0059162   -0.2751810    0.0637045    0.4326821   -0.6749738   -0.5976593
   0.0061633   -0.2752383    0.0639784    0.4761759   -0.7212442   -0.5030540
   0.0066650   -0.2749583    0.0640971    0.5826544   -0.5756967   -0.5736612
   0.0072064   -0.2741620    0.0642016    0.6764287   -0.2498787   -0.6928238
   0.0071709   -0.2746187    0.0643973    0.6818395   -0.4686343   -0.5616732
   0.0074377   -0.2727718    0.0642563    0.5431579    0.2093329   -0.8131170
   0.0076811   -0.2737078    0.0644832    0.6384101   -0.2695648   -0.7209489
   0.0077876   -0.2733353    0.0644657    0.5610725   -0.0899536   -0.8228645
   0.0070144   -0.2719027    0.0642869    0.5801514    0.4495491   -0.6792128
   0.0048511   -0.2757334    0.0633803    0.5491315   -0.7245048   -0.4165903
   0.0046990   -0.2756298    0.0629714    0.6266649   -0.6936289   -0.3552043
   0.0042949   -0.2757578    0.0625683    0.5187547   -0.8018614   -0.2964993
   0.0066700   -0.2709292    0.0647295    0.5902021    0.3997433   -0.7013322
   0.0066776   -0.2707117    0.0648056    0.5611663    0.1432228   -0.8152175
   0.0069383   -0.2704582    0.0649914    0.4558313   -0.2567441   -0.8522325
   0.0076777   -0.2701358    0.0649428   -0.0767868   -0.6349163   -0.7687556
   0.0071384   -0.2700917    0.0648226    0.2109662   -0.5495281   -0.8084010
   0.0073490   -0.2701768    0.0649513    0.1801050   -0.6078244   -0.7733768
   0.0083151   -0.2698060    0.0645658   -0.1448162   -0.3995856   -0.9051849
   0.0090402   -0.2697469    0.0644348   -0.0553790   -0.3391997   -0.9390829
   0.0095069   -0.2690024    0.0642540   -0.0499693   -0.1196931   -0.9915526
   0.0090685   -0.2687914    0.0642818   -0.1069352   -0.0264711   -0.9939135
   0.0092945   -0.2679233    0.0642749   -0.1077874   -0.0300989   -0.9937182
   0.0099764   -0.2665878    0.0642343    0.1029839   -0.1134511   -0.9881919
   0.0096200   -0.2679880    0.0642299   -0.0005991   -0.0169673   -0.9998559
   0.0092772   -0.2625775    0.0634974   -0.0319662   -0.1563355   -0.9871866
   0.0086227   -0.2616606    0.0634162   -0.0851624   -0.1404782   -0.9864143
   0.0088585   -0.2609878    0.0633163   -0.0597643   -0.1532722   -0.9863751
   0.0095563   -0.2608822    0.0632471   -0.0238077   -0.1530416   -0.9879329
   0.0095987   -0.2617315    0.0633535   -0.0222526   -0.1187824   -0.9926709
   0.0106630   -0.2638797    0.0637503    0.2088391   -0.1789778   -0.9614329
   0.0107237   -0.2628910    0.0635609    0.0645830   -0.1969715   -0.9782798
   0.0108008   -0.2634306    0.0637156    0.2131705   -0.2046332   -0.9553448
   0.0107411   -0.2644204    0.0639033    0.2705090   -0.1998205   -0.9417519
   0.0112078   -0.2654845    0.0642207    0.3133763   -0.1301813   -0.9406637
   0.0111141   -0.2666642    0.0643862    0.1168543   -0.2057529   -0.9716022
   0.0080143   -0.2597367    0.0631763   -0.1180649   -0.1937387   -0.9739230
   0.0072290   -0.2607847    0.0634977   -0.1767494   -0.1381359   -0.9745143
   0.0083899   -0.2604777    0.0632742   -0.1022031   -0.1478090   -0.9837210
   0.0083038   -0.2599062    0.0631969   -0.0424237   -0.2272948   -0.9729015
   0.0082092   -0.2600625    0.0632315    0.0296218   -0.2373976   -0.9709608
   0.0052574   -0.2721364    0.0738902    0.3999382   -0.5966921    0.6957069
   0.0052364   -0.2732421    0.0729816    0.3494765   -0.5532203    0.7561835
   0.0057701   -0.2749047    0.0714667    0.1769783   -0.8184354    0.5466646
   0.0063459   -0.2743848    0.0717580    0.3111726   -0.5887643    0.7460082
   0.0053764   -0.2752420    0.0705634   -0.0098311   -0.9941453    0.1076035
   0.0054323   -0.2751758    0.0708560    0.0978632   -0.9581298    0.2690911
   0.0073778   -0.2730435    0.0721555    0.2876255   -0.5700797    0.7695977
   0.0068618   -0.2726105    0.0726502    0.2963664   -0.5755834    0.7621488
   0.0060231   -0.2726926    0.0729516    0.3446782   -0.5633602    0.7508810
   0.0055916   -0.2752104    0.0706356    0.1152667   -0.9821134    0.1488857
   0.0076269   -0.2749609    0.0690077    0.0441350   -0.9929000   -0.1104611
   0.0069509   -0.2750808    0.0705209    0.0662792   -0.9888485    0.1333630
   0.0071003   -0.2749634    0.0708270    0.1705120   -0.9113074    0.3747593
   0.0064077   -0.2750582    0.0708928    0.1517688   -0.9429001    0.2964888
   0.0048143   -0.2722337    0.0740563    0.2370980   -0.5306122    0.8137784
   0.0047640   -0.2716525    0.0743702    0.1267355   -0.3552367    0.9261452
   0.0052168   -0.2711237    0.0743642    0.2230016   -0.1264461    0.9665825
   0.0049579   -0.2715060    0.0743799    0.2470437   -0.2268234    0.9420831
   0.0058104   -0.2709996    0.0741890    0.4062741   -0.2016877    0.8912146
   0.0056087   -0.2712098    0.0742052    0.3702302   -0.2658417    0.8900887
   0.0061720   -0.2707382    0.0740010    0.3709879   -0.1494716    0.9165294
   0.0060784   -0.2700777    0.0741732    0.3099258   -0.0347149    0.9501268
   0.0060681   -0.2695310    0.0741594    0.2109179    0.0687013    0.9750866
   0.0057929   -0.2682908    0.0741055    0.2471440    0.0555996    0.9673823
   0.0073748   -0.2747377    0.0660336    0.3810196   -0.9220001    0.0688472
   0.0067928   -0.2750476    0.0653428    0.3977479   -0.9004317    0.1761233
   0.0068194   -0.2751078    0.0647815    0.5135310   -0.8561140   -0.0579202
   0.0064272   -0.2752744    0.0643445    0.5022091   -0.8138232   -0.2923657
   0.0054117   -0.2758166    0.0642433    0.4817924   -0.8123176   -0.3286582
   0.0080429   -0.2745334    0.0662065    0.3290980   -0.9293276   -0.1674658
   0.0084273   -0.2747210    0.0673472    0.0307817   -0.9923136   -0.1198592
   0.0082636   -0.2748534    0.0685417    0.1445489   -0.9839043   -0.1050614
   0.0081779   -0.2748658    0.0686711    0.0572845   -0.9854660   -0.1599229
   0.0080887   -0.2749052    0.0687960    0.2834495   -0.9440523   -0.1685870
   0.0047195   -0.2596208    0.0640301   -0.6886524    0.1251020   -0.7142180
   0.0048250   -0.2589633    0.0640713   -0.6429139    0.1916412   -0.7415763
   0.0048687   -0.2585618    0.0642041   -0.7812817    0.3259189   -0.5323305
   0.0057197   -0.2593182    0.0635058   -0.2391103   -0.1027377   -0.9655419
   0.0057797   -0.2588160    0.0634855   -0.4117499    0.1126118   -0.9043122
   0.0071217   -0.2602053    0.0634068   -0.1684279   -0.1819407   -0.9687774
   0.0045029   -0.2579708    0.0652857   -0.8582391    0.4159682   -0.3006594
   0.0047065   -0.2571429    0.0664787   -0.7894945    0.6048100   -0.1044190
   0.0047916   -0.2570428    0.0673746   -0.7990410    0.5898659    0.1165834
   0.0043933   -0.2576904    0.0675126   -0.8620768    0.4835353    0.1517142
   0.0046609   -0.2573588    0.0659686   -0.8467635    0.5025851   -0.1743553
   0.0046061   -0.2579293    0.0687927   -0.7903304    0.5232865    0.3186676
   0.0047442   -0.2579176    0.0690743   -0.7359287    0.5340623    0.4161567
   0.0057098   -0.2589021    0.0711087   -0.6738748    0.4048114    0.6180781
   0.0057147   -0.2580350    0.0704626   -0.6598289    0.4933135    0.5668048
   0.0052500   -0.2575665    0.0694071   -0.6661171    0.5532592    0.5001923
   0.0054909   -0.2595355    0.0711985   -0.6797406    0.2921515    0.6727557
   0.0062509   -0.2669659    0.0740134    0.3543977    0.1932367    0.9149108
   0.0067008   -0.2667738    0.0737810    0.2867232    0.1850921    0.9399631
   0.0067782   -0.2663256    0.0736322    0.1388415    0.4055985    0.9034450
   0.0068836   -0.2663841    0.0736497    0.0913382    0.3994526    0.9121924
   0.0070854   -0.2660204    0.0734788   -0.1330671    0.3203162    0.9379183
   0.0074175   -0.2651971    0.0732872   -0.5592115    0.2044161    0.8034280
   0.0075402   -0.2662342    0.0736639   -0.4382349    0.1428494    0.8874369
   0.0073162   -0.2661318    0.0735642   -0.2612643    0.2516501    0.9318869
   0.0076628   -0.2657648    0.0736598   -0.7062635    0.1729656    0.6864946
   0.0076131   -0.2652618    0.0734465   -0.6914030    0.1121223    0.7137160
   0.0071152   -0.2679812    0.0736273    0.4172921   -0.0002749    0.9087724
   0.0059751   -0.2674874    0.0741432    0.2087053   -0.1697904    0.9631269
   0.0060804   -0.2673679    0.0741295    0.3208325    0.0267909    0.9467570
   0.0073185   -0.2646290    0.0731791   -0.7697290   -0.2220975    0.5984897
   0.0074958   -0.2646694    0.0733775   -0.7319831   -0.1525893    0.6640160
   0.0073052   -0.2639789    0.0734630   -0.6834278   -0.1986088    0.7024820
   0.0071393   -0.2635512    0.0734025   -0.6165973   -0.0433282    0.7860855
   0.0070808   -0.2628066    0.0733019   -0.5525837    0.1085664    0.8263562
   0.0072629   -0.2613471    0.0731094   -0.4959818    0.1884567    0.8476356
   0.0060090   -0.2591450    0.0715274   -0.6191238    0.3360264    0.7097690
   0.0069355   -0.2587877    0.0720344   -0.5385019    0.3424922    0.7698797
   0.0067660   -0.2582600    0.0716794   -0.4962587    0.4614359    0.7353939
   0.0090308   -0.2591223    0.0731982   -0.2961693    0.3583793    0.8853519
   0.0075782   -0.2589957    0.0725743   -0.4434419    0.3512469    0.8246119
   0.0075077   -0.2605190    0.0730582   -0.4383558    0.2687251    0.8576894
   0.0056190   -0.2754877    0.0638745    0.4565804   -0.7284886   -0.5107237
   0.0068338   -0.2749875    0.0643131    0.5977612   -0.6841124   -0.4179375
   0.0071806   -0.2746207    0.0644092    0.6857986   -0.4684815   -0.5569608
   0.0075124   -0.2742339    0.0645368    0.7186289   -0.3866329   -0.5780030
   0.0069195   -0.2749871    0.0644661    0.5959721   -0.7457998   -0.2976573
   0.0069804   -0.2749866    0.0645766    0.6432984   -0.6998135   -0.3105290
   0.0076715   -0.2717656    0.0647884    0.4367252    0.4825995   -0.7591896
   0.0082169   -0.2717754    0.0650105    0.2825336    0.3845838   -0.8787890
   0.0076603   -0.2727291    0.0644166    0.5138866    0.0945265   -0.8526344
   0.0078447   -0.2738480    0.0646621    0.5691860   -0.3748014   -0.7318136
   0.0076721   -0.2742509    0.0647724    0.6793922   -0.5085790   -0.5289364
   0.0079923   -0.2734124    0.0646062    0.5181576   -0.2145969   -0.8279257
   0.0080770   -0.2730265    0.0646286    0.4591168   -0.0422819   -0.8873691
   0.0068822   -0.2710162    0.0648537    0.5675401    0.4263303   -0.7043725
   0.0071700   -0.2714224    0.0647298    0.4942381    0.5854808   -0.6426047
   0.0068848   -0.2708072    0.0649337    0.5414924    0.1766506   -0.8219371
   0.0071506   -0.2705449    0.0651153    0.3951537   -0.2224861   -0.8912651
   0.0085442   -0.2699921    0.0646233   -0.1650901   -0.5677130   -0.8065030
   0.0080503   -0.2705229    0.0651882   -0.1312665   -0.4433511   -0.8866842
   0.0075614   -0.2702636    0.0650755    0.0492965   -0.5352194   -0.8432734
   0.0073703   -0.2706417    0.0652234    0.3072816   -0.1642812   -0.9373312
   0.0090706   -0.2702240    0.0646876   -0.1222367   -0.5598276   -0.8195433
   0.0096321   -0.2690736    0.0642666    0.1838570   -0.2789095   -0.9425530
   0.0091398   -0.2701195    0.0646208    0.0742379   -0.4590092   -0.8853244
   0.0097663   -0.2686199    0.0642383    0.1090575   -0.0963809   -0.9893519
   0.0102365   -0.2677849    0.0643289    0.2533876   -0.0402963   -0.9665252
   0.0108132   -0.2670011    0.0644592    0.1556359   -0.1696131   -0.9731438
   0.0107706   -0.2618842    0.0633984    0.0355677   -0.0917577   -0.9951460
   0.0093607   -0.2605498    0.0631967   -0.0639808   -0.1871766   -0.9802405
   0.0104423   -0.2601370    0.0631398    0.1592327   -0.1486455   -0.9759864
   0.0106357   -0.2612683    0.0633660    0.0600593   -0.0970236   -0.9934683
   0.0111144   -0.2640894    0.0639436    0.4661433   -0.1526174   -0.8714461
   0.0110331   -0.2635443    0.0637976    0.3928494   -0.1772098   -0.9023669
   0.0109634   -0.2630145    0.0636270    0.2782056   -0.2834494   -0.9177462
   0.0110340   -0.2620390    0.0634156    0.1462421   -0.1218677   -0.9817136
   0.0111195   -0.2625896    0.0635526    0.3720780   -0.2482607   -0.8943850
   0.0109523   -0.2619903    0.0634139    0.0053775   -0.0805216   -0.9967384
   0.0111075   -0.2633014    0.0637781    0.5324143   -0.1989756   -0.8227659
   0.0111724   -0.2630969    0.0637579    0.5568518   -0.2834315   -0.7807577
   0.0117591   -0.2664986    0.0644248    0.3118378   -0.0788712   -0.9468561
   0.0116172   -0.2647707    0.0643577    0.4669475   -0.0090585   -0.8842386
   0.0115167   -0.2642331    0.0642398    0.6145444   -0.0174304   -0.7886897
   0.0116107   -0.2669334    0.0644830    0.1688292   -0.1944359   -0.9662771
   0.0072337   -0.2597640    0.0633025   -0.1609659   -0.1872492   -0.9690344
   0.0082767   -0.2598904    0.0631953   -0.0674780   -0.2253321   -0.9719425
   0.0084562   -0.2594964    0.0630712   -0.1039202   -0.2307361   -0.9674510
   0.0083596   -0.2589316    0.0629577   -0.1264572   -0.1657614   -0.9780244
   0.0077447   -0.2587149    0.0630264   -0.1556648   -0.1060271   -0.9821032
   0.0053350   -0.2718359    0.0740837    0.4138878   -0.4660529    0.7819792
   0.0060579   -0.2714480    0.0738945    0.3942013   -0.4637524    0.7934350
   0.0065327   -0.2745063    0.0715884    0.3259942   -0.5958720    0.7339375
   0.0067814   -0.2747842    0.0712163    0.2384102   -0.7605791    0.6038874
   0.0075110   -0.2733926    0.0718031    0.2684893   -0.5712380    0.7756292
   0.0078193   -0.2732989    0.0718500    0.1313367   -0.6203833    0.7732239
   0.0080892   -0.2729073    0.0720774    0.2167012   -0.5724054    0.7908177
   0.0064903   -0.2715985    0.0736460    0.3112465   -0.5136549    0.7995525
   0.0071273   -0.2715072    0.0734508    0.3222763   -0.4717241    0.8207401
   0.0077079   -0.2713667    0.0733017    0.2506479   -0.4583129    0.8527162
   0.0063840   -0.2714988    0.0737483    0.3469080   -0.3971689    0.8496539
   0.0081671   -0.2749499    0.0691485    0.0770480   -0.9917915   -0.1020447
   0.0073526   -0.2750802    0.0703816    0.1440343   -0.9700894    0.1953986
   0.0075093   -0.2747874    0.0709088    0.2886284   -0.7349875    0.6135853
   0.0051445   -0.2716995    0.0742447    0.3248481   -0.3918310    0.8607800
   0.0065839   -0.2699011    0.0739946    0.3468765   -0.0743940    0.9349557
   0.0069062   -0.2713239    0.0735956    0.3294695   -0.3031606    0.8941719
   0.0074174   -0.2700513    0.0737978    0.1621090   -0.0656468    0.9845868
   0.0077642   -0.2691075    0.0736315    0.2079046    0.1242877    0.9702207
   0.0070321   -0.2708208    0.0736964    0.2275976   -0.2680495    0.9361350
   0.0067329   -0.2689310    0.0739087    0.3092861    0.1117594    0.9443791
   0.0073157   -0.2747702    0.0651245    0.6442369   -0.7575480   -0.1052609
   0.0075299   -0.2745882    0.0651275    0.6119828   -0.7518361   -0.2453968
   0.0067196   -0.2751132    0.0644431    0.5323693   -0.8175423   -0.2195622
   0.0071957   -0.2748180    0.0647993    0.6771056   -0.7257421   -0.1217640
   0.0085700   -0.2745150    0.0667102    0.1778349   -0.9517600   -0.2500554
   0.0077948   -0.2744704    0.0654791    0.5287433   -0.7971334   -0.2915628
   0.0083137   -0.2743221    0.0657087    0.2819945   -0.8975119   -0.3390451
   0.0084964   -0.2748910    0.0686529   -0.1212273   -0.9864212   -0.1108027
   0.0093095   -0.2749912    0.0687248    0.0296312   -0.9776739   -0.2080281
   0.0083444   -0.2748918    0.0688925    0.8430110   -0.5310081   -0.0858068
   0.0083444   -0.2748918    0.0688925    0.8128607   -0.5807927   -0.0440155
   0.0083444   -0.2748918    0.0688925    0.7158914   -0.6933198   -0.0825059
   0.0052321   -0.2583277    0.0639414   -0.5876823    0.3338769   -0.7369910
   0.0047946   -0.2577071    0.0649810   -0.7365974    0.4855362   -0.4708278
   0.0071886   -0.2587134    0.0631033   -0.2038193   -0.0451970   -0.9779647
   0.0062944   -0.2587042    0.0633407   -0.2803803    0.0110637   -0.9598252
   0.0060638   -0.2584611    0.0634357   -0.3820033    0.1690952   -0.9085595
   0.0047000   -0.2574034    0.0657035   -0.7878680    0.5577902   -0.2610253
   0.0050896   -0.2566485    0.0670142   -0.7295196    0.6838445    0.0125626
   0.0049712   -0.2569541    0.0659062   -0.7455943    0.6306166   -0.2154341
   0.0049091   -0.2569990    0.0677015   -0.7388402    0.6409291    0.2081465
   0.0048793   -0.2572233    0.0681524   -0.7693949    0.5811722    0.2650857
   0.0052921   -0.2571855    0.0690001   -0.6805841    0.6283343    0.3768305
   0.0060696   -0.2576794    0.0705410   -0.6248479    0.5415285    0.5624162
   0.0063880   -0.2581485    0.0713319   -0.6063368    0.4506685    0.6551745
   0.0058860   -0.2570336    0.0696084   -0.6333525    0.5963072    0.4932365
   0.0064523   -0.2673145    0.0739546    0.4237883    0.0550078    0.9040894
   0.0071611   -0.2665574    0.0736362    0.0501545    0.1042391    0.9932868
   0.0070266   -0.2670114    0.0736651    0.3596293   -0.0559279    0.9314176
   0.0075124   -0.2663770    0.0736494   -0.3051078   -0.1016912    0.9468728
   0.0077275   -0.2662879    0.0738410   -0.7127460    0.0004495    0.7014221
   0.0078406   -0.2649311    0.0737165   -0.7287056    0.0648939    0.6817455
   0.0080896   -0.2655068    0.0740804   -0.6187054    0.1646942    0.7681663
   0.0082494   -0.2648892    0.0740772   -0.6113723    0.0190251    0.7911144
   0.0080042   -0.2658275    0.0740845   -0.6501819    0.1172740    0.7506732
   0.0076395   -0.2685347    0.0734901    0.3326885    0.3081693    0.8912632
   0.0076248   -0.2680483    0.0732908    0.4799320    0.1720177    0.8602762
   0.0073874   -0.2673574    0.0734499    0.5285096   -0.0183431    0.8487291
   0.0076736   -0.2643928    0.0737031   -0.6493977   -0.1762524    0.7397417
   0.0079065   -0.2641916    0.0739113   -0.5761321   -0.0331158    0.8166855
   0.0082122   -0.2637704    0.0740937   -0.4302729    0.0508889    0.9012633
   0.0074227   -0.2629351    0.0735338   -0.5167278    0.1260180    0.8468246
   0.0077321   -0.2620716    0.0735604   -0.4632362    0.1884157    0.8659744
   0.0081319   -0.2608078    0.0734403   -0.4043491    0.2496186    0.8798820
   0.0071508   -0.2583806    0.0720128   -0.4778862    0.4671031    0.7439351
   0.0067581   -0.2578129    0.0713790   -0.5119793    0.5432796    0.6653755
   0.0069802   -0.2582892    0.0718240   -0.4441885    0.5517257    0.7059004
   0.0075435   -0.2567650    0.0710581   -0.4307130    0.6064801    0.6683324
   0.0073354   -0.2575574    0.0715601   -0.4650427    0.5267597    0.7115192
   0.0075297   -0.2580576    0.0720408   -0.4107066    0.4875884    0.7704399
   0.0083861   -0.2607940    0.0735396   -0.3261747    0.2688561    0.9062706
   0.0086988   -0.2606531    0.0735970   -0.2798416    0.2568989    0.9250360
   0.0104136   -0.2598262    0.0736031   -0.0021575    0.3303161    0.9438679
   0.0103069   -0.2583355    0.0729854    0.0043557    0.4350547    0.9003935
   0.0092157   -0.2606786    0.0737603   -0.1727449    0.2822359    0.9436642
   0.0085256   -0.2575305    0.0721661   -0.3304848    0.5121083    0.7927957
   0.0091840   -0.2582561    0.0728112   -0.2063508    0.4646183    0.8611325
   0.0073312   -0.2746253    0.0646635    0.7231790   -0.6086802   -0.3263749
   0.0073254   -0.2712142    0.0650630    0.3974786    0.4666576   -0.7900896
   0.0078765   -0.2715224    0.0650584    0.2082895    0.4185824   -0.8839707
   0.0080984   -0.2729208    0.0646375    0.3663721    0.1143161   -0.9234193
   0.0084245   -0.2724544    0.0648057    0.1674820    0.2258243   -0.9596630
   0.0087399   -0.2714859    0.0651941   -0.0334064    0.2100078   -0.9771288
   0.0084355   -0.2713872    0.0652202    0.1004637    0.3727584   -0.9224740
   0.0078344   -0.2742714    0.0650029    0.5941494   -0.6107367   -0.5234379
   0.0080336   -0.2739041    0.0648365    0.4823755   -0.4932817   -0.7238695
   0.0081988   -0.2734913    0.0647424    0.3769714   -0.2171490   -0.9004104
   0.0083342   -0.2730316    0.0647339    0.2541371   -0.0168510   -0.9670214
   0.0071119   -0.2712097    0.0649079    0.5448106    0.5607506   -0.6234903
   0.0070979   -0.2711078    0.0649714    0.5291896    0.3695044   -0.7638225
   0.0071055   -0.2708765    0.0650526    0.4790666    0.1923570   -0.8564426
   0.0086845   -0.2702420    0.0647949   -0.1577784   -0.6599750   -0.7345332
   0.0084015   -0.2705449    0.0651196   -0.1752045   -0.5403380   -0.8230056
   0.0076153   -0.2707722    0.0652797    0.1192582   -0.0771360   -0.9898624
   0.0085877   -0.2708465    0.0651986   -0.1570547   -0.2177182   -0.9632926
   0.0081806   -0.2711115    0.0652923    0.0152721    0.1135655   -0.9934131
   0.0073377   -0.2709169    0.0651643    0.3634622    0.2048217   -0.9088142
   0.0087945   -0.2704892    0.0650164   -0.1705306   -0.5186377   -0.8378152
   0.0090503   -0.2706339    0.0650492   -0.1904898   -0.4330813   -0.8809962
   0.0093054   -0.2703409    0.0647641   -0.0238161   -0.5192751   -0.8542752
   0.0097901   -0.2705949    0.0648864    0.1368928   -0.3395509   -0.9305727
   0.0102195   -0.2688316    0.0644277    0.4591641   -0.0632787   -0.8860949
   0.0102917   -0.2693646    0.0645928    0.3853511   -0.3007368   -0.8723886
   0.0101364   -0.2682841    0.0642847    0.3704815   -0.0826605   -0.9251544
   0.0100206   -0.2686733    0.0643099    0.3256633   -0.2202160   -0.9194827
   0.0110469   -0.2676440    0.0645902    0.1944084   -0.1266656   -0.9727082
   0.0104392   -0.2679412    0.0644405    0.4064981   -0.1079357   -0.9072536
   0.0109016   -0.2614259    0.0633770    0.0922474   -0.0723690   -0.9931028
   0.0111564   -0.2615694    0.0634111    0.3483112   -0.0864732   -0.9333819
   0.0110681   -0.2618972    0.0634186    0.2432296   -0.0468413   -0.9688371
   0.0095867   -0.2596641    0.0629995   -0.0374668   -0.2173804   -0.9753676
   0.0109036   -0.2603600    0.0633113    0.2441017   -0.0533410   -0.9682815
   0.0101034   -0.2594453    0.0629655    0.1793580   -0.1373654   -0.9741465
   0.0107792   -0.2586883    0.0631940    0.4259854    0.0323575   -0.9041512
   0.0110384   -0.2609757    0.0633438    0.2106603   -0.0261483   -0.9772096
   0.0113884   -0.2638013    0.0641213    0.7481951    0.0141768   -0.6633273
   0.0112320   -0.2636133    0.0639501    0.6817743   -0.1029341   -0.7242847
   0.0112629   -0.2621480    0.0635046    0.5700681   -0.1606053   -0.8057470
   0.0113100   -0.2626475    0.0637222    0.7914729   -0.2350365   -0.5642061
   0.0113338   -0.2631164    0.0639906    0.8486710   -0.1804040   -0.4972041
   0.0125412   -0.2663196    0.0647456    0.4013844   -0.0411584   -0.9149845
   0.0120701   -0.2648784    0.0645886    0.4225362    0.0633128   -0.9041320
   0.0123319   -0.2661201    0.0646627    0.4031716    0.0277285   -0.9147042
   0.0121262   -0.2644030    0.0646924    0.5728662    0.2275460   -0.7874307
   0.0115680   -0.2636156    0.0644076    0.7929440    0.1906961   -0.5786838
   0.0120506   -0.2681969    0.0647608    0.2293530   -0.1249283   -0.9652928
   0.0080941   -0.2582284    0.0629435   -0.1230564    0.0328023   -0.9918574
   0.0090697   -0.2588523    0.0628580   -0.0544344   -0.0878925   -0.9946415
   0.0072375   -0.2580357    0.0631118   -0.2231175    0.1426618   -0.9642957
   0.0068257   -0.2745525    0.0714274    0.3356487   -0.5840378    0.7390803
   0.0088425   -0.2745297    0.0707257    0.1087740   -0.7100672    0.6956815
   0.0081963   -0.2747413    0.0706719    0.2297366   -0.6884864    0.6879008
   0.0084546   -0.2734932    0.0715941    0.1471835   -0.5634581    0.8129280
   0.0092552   -0.2728377    0.0717486    0.1924051   -0.5351934    0.8225256
   0.0073193   -0.2706217    0.0737212    0.1900456   -0.2667024    0.9448558
   0.0076946   -0.2707166    0.0735858    0.2274844   -0.2947717    0.9280951
   0.0089859   -0.2711178    0.0731156    0.1571586   -0.4511617    0.8784955
   0.0091810   -0.2702616    0.0734014    0.1162599   -0.2701212    0.9557814
   0.0088634   -0.2714599    0.0729240    0.1722339   -0.5667246    0.8057039
   0.0083622   -0.2749560    0.0698283    0.0775681   -0.9911203    0.1079992
   0.0085116   -0.2749191    0.0691130   -0.0472458   -0.9980170   -0.0415923
   0.0083516   -0.2748588    0.0703791    0.1838091   -0.9397550    0.2882269
   0.0082271   -0.2747851    0.0705963    0.1965195   -0.8477804    0.4925937
   0.0081807   -0.2699025    0.0736418    0.0966861   -0.0635546    0.9932838
   0.0080367   -0.2692740    0.0736284    0.0011045    0.1695907    0.9855140
   0.0079561   -0.2687304    0.0734817    0.0066044    0.2882367    0.9575364
   0.0080976   -0.2741229    0.0651411    0.4734810   -0.7438904   -0.4716384
   0.0090727   -0.2745080    0.0669085    0.0925247   -0.9552854   -0.2808362
   0.0086319   -0.2742705    0.0657223    0.1617182   -0.9210879   -0.3541811
   0.0084958   -0.2740400    0.0652624    0.2456580   -0.7961887   -0.5529337
   0.0091816   -0.2750389    0.0689955   -0.0972638   -0.9948860   -0.0272333
   0.0085806   -0.2749246    0.0690016    0.0996688   -0.9935430   -0.0542065
   0.0095323   -0.2749300    0.0684859    0.0339307   -0.9750318   -0.2194578
   0.0105203   -0.2750614    0.0698414   -0.0002329   -0.9964182    0.0845616
   0.0059920   -0.2581313    0.0635557   -0.4608600    0.3067330   -0.8327802
   0.0054281   -0.2578477    0.0640998   -0.5993438    0.4538985   -0.6593658
   0.0050395   -0.2572473    0.0651682   -0.7269088    0.5796787   -0.3682068
   0.0054654   -0.2571259    0.0646841   -0.6314316    0.5798156   -0.5148864
   0.0067724   -0.2584302    0.0631921   -0.2640571    0.0590226   -0.9626994
   0.0068873   -0.2579427    0.0632280   -0.3052861    0.2096420   -0.9288975
   0.0055593   -0.2562302    0.0674808   -0.6809187    0.7112726    0.1744737
   0.0056433   -0.2561966    0.0661286   -0.6537324    0.7432360   -0.1422473
   0.0051033   -0.2570406    0.0653992   -0.6938407    0.6337624   -0.3419508
   0.0053890   -0.2566100    0.0656166   -0.6650009    0.6764023   -0.3166285
   0.0051413   -0.2568764    0.0680383   -0.6950090    0.6588218    0.2879520
   0.0066636   -0.2562019    0.0695382   -0.5895938    0.6908440    0.4184660
   0.0059894   -0.2561911    0.0683641   -0.6243547    0.7202733    0.3023038
   0.0068317   -0.2566001    0.0702687   -0.5570259    0.6357353    0.5343807
   0.0071720   -0.2570517    0.0710328   -0.5420181    0.5810390    0.6071327
   0.0074468   -0.2667419    0.0736050   -0.0527436   -0.1278918    0.9903847
   0.0074025   -0.2673158    0.0734436    0.3505791   -0.2501763    0.9024999
   0.0074172   -0.2669450    0.0735709    0.0972528   -0.3114339    0.9452782
   0.0077001   -0.2668680    0.0736496   -0.5622944   -0.3035665    0.7692024
   0.0081021   -0.2663952    0.0741960   -0.4653601   -0.0261346    0.8847355
   0.0078582   -0.2667326    0.0739499   -0.7527650   -0.2075557    0.6247124
   0.0083306   -0.2654342    0.0742230   -0.4017813    0.0951782    0.9107760
   0.0082123   -0.2659091    0.0742182   -0.3920605    0.0794534    0.9165019
   0.0082704   -0.2647454    0.0741030   -0.4863001   -0.0763274    0.8704518
   0.0085668   -0.2644835    0.0742350   -0.3171307    0.0240593    0.9480766
   0.0076569   -0.2680699    0.0732845    0.1516449    0.2629528    0.9528167
   0.0078988   -0.2682175    0.0732848    0.0354311    0.2590322    0.9652186
   0.0078026   -0.2676524    0.0731705    0.0364786   -0.1769575    0.9835422
   0.0081437   -0.2641133    0.0740630   -0.4632400   -0.0111219    0.8861631
   0.0089181   -0.2630534    0.0742591   -0.3207972    0.1500166    0.9351920
   0.0078247   -0.2625768    0.0737046   -0.4341863    0.1562620    0.8871665
   0.0094586   -0.2630463    0.0743987   -0.2321065    0.1726824    0.9572394
   0.0095379   -0.2637843    0.0744696   -0.1685758    0.0013992    0.9856877
   0.0084177   -0.2622169    0.0739027   -0.3369262    0.2119617    0.9173620
   0.0078327   -0.2574825    0.0717945   -0.3914254    0.5565669    0.7328161
   0.0074481   -0.2559687    0.0700461   -0.4830656    0.6882836    0.5412146
   0.0088722   -0.2572212    0.0720914   -0.3156127    0.5731358    0.7562433
   0.0079814   -0.2561194    0.0706278   -0.4190369    0.6833250    0.5978922
   0.0079544   -0.2564836    0.0710179   -0.3588923    0.6483368    0.6714579
   0.0109169   -0.2596297    0.0734785    0.1358352    0.3613490    0.9224834
   0.0101080   -0.2606467    0.0738492   -0.0086211    0.3061350    0.9519491
   0.0115164   -0.2604729    0.0736755    0.1887255    0.3243056    0.9269350
   0.0092121   -0.2573604    0.0722909   -0.1729715    0.5218593    0.8353106
   0.0110575   -0.2592342    0.0732900    0.1683325    0.3806394    0.9092732
   0.0116308   -0.2584144    0.0728431    0.1965847    0.4354488    0.8784867
   0.0104106   -0.2576514    0.0726044    0.0166230    0.5016536    0.8649089
   0.0103279   -0.2622498    0.0743380   -0.0510496    0.2473580    0.9675784
   0.0076000   -0.2708872    0.0652565    0.2268851    0.2749949   -0.9342917
   0.0087843   -0.2727433    0.0647829    0.0387484    0.1261307   -0.9912566
   0.0093532   -0.2725429    0.0647885   -0.0471060    0.1492062   -0.9876834
   0.0088246   -0.2709926    0.0651942   -0.1475130   -0.1731185   -0.9737915
   0.0091742   -0.2712231    0.0651409   -0.1430712   -0.0417148   -0.9888329
   0.0084092   -0.2740123    0.0651891    0.2971263   -0.6481718   -0.7011342
   0.0084112   -0.2735783    0.0648668    0.3528010   -0.4223450   -0.8349588
   0.0085720   -0.2731601    0.0647820    0.1787370   -0.1942579   -0.9645294
   0.0093209   -0.2707983    0.0650494   -0.2120669   -0.2738852   -0.9380909
   0.0093863   -0.2706995    0.0649861   -0.2115391   -0.4262505   -0.8795236
   0.0100234   -0.2707096    0.0649667    0.2355870   -0.1372491   -0.9621130
   0.0096042   -0.2709797    0.0650241   -0.1051079   -0.2806234   -0.9540455
   0.0103717   -0.2703447    0.0650585    0.4050428   -0.2257936   -0.8859784
   0.0104646   -0.2689213    0.0646008    0.5017273    0.0335583   -0.8643746
   0.0102397   -0.2687439    0.0644301    0.4879807   -0.1502355   -0.8598279
   0.0103949   -0.2688934    0.0645596    0.5816037    0.0968077   -0.8076914
   0.0105336   -0.2699275    0.0649716    0.2580511   -0.3961468   -0.8811795
   0.0107271   -0.2695525    0.0648175    0.0835556   -0.2805997   -0.9561811
   0.0105553   -0.2684503    0.0645463    0.3342169   -0.1555190   -0.9295767
   0.0114284   -0.2683924    0.0646749    0.1653039   -0.1147629   -0.9795428
   0.0112884   -0.2610450    0.0634157    0.4464913   -0.0323818   -0.8942019
   0.0113653   -0.2611270    0.0634837    0.6250865   -0.0639027   -0.7779353
   0.0113713   -0.2616598    0.0635306    0.6296961   -0.1039750   -0.7698520
   0.0114723   -0.2611618    0.0635729    0.7855575   -0.0729343   -0.6144753
   0.0113179   -0.2618994    0.0635186    0.6696324   -0.0921316   -0.7369561
   0.0095961   -0.2591614    0.0628911    0.0261578   -0.0997263   -0.9946710
   0.0111385   -0.2604767    0.0633879    0.4518871    0.0220450   -0.8918027
   0.0099920   -0.2588602    0.0628830    0.2030014    0.0146204   -0.9790693
   0.0102183   -0.2584191    0.0629813    0.3225147    0.1449244   -0.9354043
   0.0110169   -0.2585593    0.0633654    0.5524404    0.2051587   -0.8079106
   0.0114118   -0.2587989    0.0636343    0.5981139    0.1138827   -0.7932783
   0.0103653   -0.2579872    0.0631417    0.4173475    0.3176900   -0.8514071
   0.0113625   -0.2605789    0.0634870    0.5148895    0.0459124   -0.8560262
   0.0112602   -0.2636178    0.0639857    0.8319127   -0.0295222   -0.5541206
   0.0114395   -0.2633387    0.0642283    0.9085401    0.1737661   -0.3799477
   0.0114135   -0.2622532    0.0637193    0.8872740   -0.1747570   -0.4268546
   0.0113993   -0.2621721    0.0636773    0.8788012   -0.1571790   -0.4505588
   0.0113755   -0.2629113    0.0640070    0.9680914   -0.1227455   -0.2184780
   0.0113858   -0.2626383    0.0638857    0.9737458   -0.1737735   -0.1470439
   0.0113702   -0.2631029    0.0640931    0.9845102   -0.0313108   -0.1725090
   0.0124066   -0.2678424    0.0648374    0.3972189   -0.1288114   -0.9086390
   0.0135279   -0.2672868    0.0652705    0.4741809   -0.0735719   -0.8773481
   0.0132550   -0.2662952    0.0651134    0.5009965    0.0170957   -0.8652804
   0.0127981   -0.2647645    0.0649695    0.4895373    0.1399352   -0.8606807
   0.0133760   -0.2655788    0.0652120    0.5208201    0.0550592   -0.8518891
   0.0122801   -0.2650987    0.0646627    0.4368133    0.0793572   -0.8960450
   0.0117355   -0.2634575    0.0647020    0.7166736    0.2998814   -0.6296429
   0.0138922   -0.2649378    0.0656455    0.6060857    0.3438440   -0.7172388
   0.0127573   -0.2640779    0.0653119    0.5665999    0.3630886   -0.7396832
   0.0121194   -0.2638157    0.0649400    0.6273548    0.2783111   -0.7273025
   0.0115525   -0.2633031    0.0645583    0.7879823    0.3591284   -0.5001107
   0.0121008   -0.2687349    0.0648714    0.3168655   -0.0981153   -0.9433820
   0.0079754   -0.2578389    0.0630164   -0.1492752    0.2402781   -0.9591576
   0.0085348   -0.2583971    0.0628969   -0.1007674    0.0579997   -0.9932180
   0.0083411   -0.2575728    0.0630412   -0.0816998    0.3033432   -0.9493724
   0.0093438   -0.2589555    0.0628777    0.0452292   -0.0284365   -0.9985718
   0.0092168   -0.2583284    0.0628380    0.0314748    0.0674511   -0.9972260
   0.0070316   -0.2574413    0.0633565   -0.2891523    0.3908446   -0.8738601
   0.0072795   -0.2575915    0.0632248   -0.2023564    0.3962110   -0.8955829
   0.0086327   -0.2747876    0.0704590    0.1725219   -0.9046017    0.3897845
   0.0091160   -0.2744756    0.0708105    0.0053702   -0.7272001    0.6864045
   0.0092668   -0.2741787    0.0710337    0.0650953   -0.5565923    0.8282316
   0.0087525   -0.2748587    0.0702403    0.0679649   -0.9005775    0.4293494
   0.0113902   -0.2736231    0.0710292    0.0555850   -0.4872190    0.8715090
   0.0096388   -0.2724743    0.0719003    0.1602870   -0.5810561    0.7979235
   0.0100998   -0.2742883    0.0708179    0.1073470   -0.5429593    0.8328696
   0.0092342   -0.2715303    0.0728050    0.3482325   -0.5664999    0.7468681
   0.0091524   -0.2710245    0.0731391    0.2402255   -0.3976563    0.8855288
   0.0091880   -0.2712881    0.0729755    0.7601068   -0.3452177    0.5505110
   0.0088307   -0.2691979    0.0736719    0.1874432   -0.0905314    0.9780946
   0.0092010   -0.2706459    0.0732848    0.0649880   -0.3301250    0.9416974
   0.0095323   -0.2703783    0.0732953    0.2922863   -0.3109676    0.9043605
   0.0096007   -0.2698755    0.0733910    0.2874876   -0.1422203    0.9471664
   0.0090237   -0.2749320    0.0697828   -0.0788374   -0.9907581    0.1103769
   0.0093995   -0.2748685    0.0702044   -0.0511349   -0.9284510    0.3679185
   0.0084392   -0.2689818    0.0736068   -0.2249012    0.1034847    0.9688707
   0.0086734   -0.2690974    0.0736848   -0.0450844    0.0311355    0.9984979
   0.0082963   -0.2686088    0.0734880   -0.2502380    0.1517875    0.9562121
   0.0081363   -0.2683378    0.0733564   -0.4457570    0.1463606    0.8831077
   0.0083453   -0.2684199    0.0734867   -0.4779581   -0.0054989    0.8783654
   0.0101033   -0.2741367    0.0662507    0.1240551   -0.9310898   -0.3430482
   0.0101586   -0.2744548    0.0670177    0.0113723   -0.9402781   -0.3402172
   0.0088740   -0.2740641    0.0654242    0.1691652   -0.8039406   -0.5701426
   0.0093670   -0.2740803    0.0656290    0.1590654   -0.8652015   -0.4755255
   0.0088491   -0.2737701    0.0650876    0.1969491   -0.6448194   -0.7385249
   0.0098814   -0.2750321    0.0698724   -0.0300731   -0.9669664    0.2531237
   0.0096322   -0.2750316    0.0697716   -0.1102489   -0.9787599    0.1728416
   0.0101718   -0.2749603    0.0687561   -0.0606381   -0.9837306   -0.1691067
   0.0104372   -0.2748005    0.0680996   -0.0715448   -0.9586612   -0.2754088
   0.0109159   -0.2750745    0.0697064   -0.1116900   -0.9920123    0.0586251
   0.0110449   -0.2750062    0.0700254   -0.0329627   -0.9294200    0.3675486
   0.0109436   -0.2748896    0.0702323    0.0065157   -0.8593655    0.5113203
   0.0059932   -0.2577847    0.0636932   -0.5785349    0.3379136   -0.7423690
   0.0064576   -0.2575744    0.0635405   -0.4169629    0.4640698   -0.7815249
   0.0059271   -0.2575837    0.0638791   -0.5855278    0.4510987   -0.6735482
   0.0057803   -0.2572266    0.0642556   -0.5060258    0.5664270   -0.6504601
   0.0053577   -0.2569055    0.0651389   -0.6194720    0.6548506   -0.4329262
   0.0060704   -0.2567860    0.0644702   -0.4969901    0.6568334   -0.5670720
   0.0059767   -0.2558187    0.0669881   -0.5929892    0.8042155    0.0400160
   0.0058243   -0.2560478    0.0676313   -0.6018471    0.7696508    0.2131145
   0.0060521   -0.2561573    0.0653742   -0.5292933    0.7755453   -0.3440612
   0.0061183   -0.2557430    0.0667097   -0.5173312    0.8432552   -0.1459078
   0.0071954   -0.2555778    0.0691194   -0.5100236    0.7938349    0.3312131
   0.0063783   -0.2558789    0.0683757   -0.5736567    0.7661320    0.2897581
   0.0074940   -0.2556403    0.0696124   -0.4971599    0.7419325    0.4498535
   0.0064832   -0.2556078    0.0677575   -0.5437446    0.8170431    0.1917873
   0.0076772   -0.2668700    0.0736421   -0.2062816   -0.3702750    0.9057286
   0.0077746   -0.2673905    0.0733201   -0.3612485   -0.5255972    0.7702254
   0.0077251   -0.2668901    0.0736696   -0.7796976   -0.3829126    0.4954287
   0.0080430   -0.2669485    0.0740651   -0.5194444   -0.2227537    0.8249596
   0.0081096   -0.2663990    0.0741980   -0.2887961   -0.1004533    0.9521060
   0.0083883   -0.2663129    0.0742711   -0.1141863   -0.0437796    0.9924942
   0.0084505   -0.2660305    0.0742880   -0.0880750   -0.0176921    0.9959567
   0.0078720   -0.2670467    0.0738007   -0.7963081   -0.3370576    0.5022803
   0.0085690   -0.2655555    0.0742926   -0.0995051    0.0168991    0.9948935
   0.0086899   -0.2650838    0.0742922   -0.1306712   -0.0208741    0.9912060
   0.0090716   -0.2646269    0.0743698   -0.1225879   -0.0372333    0.9917590
   0.0094165   -0.2643950    0.0744140   -0.0905890   -0.0595603    0.9941057
   0.0080298   -0.2677592    0.0732630   -0.6016437   -0.2249808    0.7664258
   0.0079822   -0.2674877    0.0734478   -0.7502344   -0.4924773    0.4411512
   0.0100035   -0.2630826    0.0745121   -0.1050413    0.1386608    0.9847535
   0.0101550   -0.2637213    0.0745108    0.0557418   -0.2131442    0.9754293
   0.0102340   -0.2633330    0.0745419   -0.0121509    0.0051643    0.9999128
   0.0078536   -0.2556716    0.0700215   -0.4219532    0.7285277    0.5396322
   0.0091434   -0.2568919    0.0719440   -0.2322922    0.6118397    0.7561035
   0.0084082   -0.2558224    0.0705689   -0.3456503    0.7084945    0.6152734
   0.0089639   -0.2564118    0.0714315   -0.2710849    0.6803657    0.6808931
   0.0116595   -0.2595937    0.0733100    0.3038137    0.3319295    0.8930398
   0.0104301   -0.2613163    0.0740591    0.0090527    0.2987483    0.9542890
   0.0106873   -0.2609689    0.0739378    0.0864938    0.3253590    0.9416264
   0.0120990   -0.2618105    0.0739898    0.2912112    0.3103196    0.9049297
   0.0124574   -0.2615748    0.0737221    0.4869997    0.2925405    0.8229528
   0.0101438   -0.2571162    0.0722521   -0.0106808    0.5935564    0.8047215
   0.0120356   -0.2588675    0.0729135    0.3560110    0.3740752    0.8563433
   0.0115165   -0.2575291    0.0723916    0.2255731    0.5178921    0.8251694
