NORM_ASCII
3558 7126
   0.0201909   -0.2642963    0.0546165    0.9440163    0.0848433   -0.3188021
   0.0196217   -0.2632780    0.0547715   -0.0661777   -0.3960250   -0.9158519
   0.0195872   -0.2632696    0.0547739   -0.2212556   -0.5662014   -0.7940163
   0.0199067   -0.2638158    0.0547493   -0.1449797    0.1029710   -0.9840619
   0.0201639   -0.2637941    0.0547039   -0.1675294    0.2831503   -0.9443303
   0.0200502   -0.2650870    0.0513008    0.2835853   -0.5289607    0.7998625
   0.0203329   -0.2654129    0.0509074    0.9082396   -0.3228435    0.2662194
   0.0203076   -0.2650918    0.0512994   -0.0184437   -0.6355291    0.7718566
   0.0199629   -0.2651013    0.0513260    0.4013232   -0.4726268    0.7845786
   0.0209294   -0.2669040    0.0505976   -0.3660189   -0.3897507    0.8450589
   0.0209027   -0.2664439    0.0507570   -0.5951453   -0.3755449    0.7104703
   0.0208531   -0.2660036    0.0509483   -0.8398021   -0.2949121    0.4558062
   0.0208773   -0.2656826    0.0502255    0.3565443    0.1796304    0.9168474
   0.0207841   -0.2655928    0.0502628    0.4104355    0.1224467    0.9036313
   0.0206152   -0.2656645    0.0503891    0.5927785    0.2706503    0.7585263
   0.0211414   -0.2658037    0.0501813    0.2772165   -0.0181901    0.9606353
   0.0208740   -0.2658104    0.0506252   -0.2057610    0.5245083   -0.8261679
   0.0205952   -0.2654987    0.0508795   -0.7655186   -0.5628039   -0.3118222
   0.0207998   -0.2655664    0.0511480   -0.7270894   -0.4671076    0.5031416
   0.0205906   -0.2654381    0.0509407   -0.5251574   -0.6636552    0.5327021
   0.0205422   -0.2652848    0.0506854    0.8116924   -0.0927345   -0.5766765
   0.0204109   -0.2651449    0.0504533    0.9061281    0.3015241    0.2966734
   0.0203329   -0.2654129    0.0509074    0.6032916   -0.7476519    0.2775895
   0.0205905   -0.2653676    0.0508202    0.2292993   -0.2549573   -0.9393714
   0.0196133   -0.2625253    0.0535252    0.3172316   -0.2587673    0.9123616
   0.0193815   -0.2629086    0.0532470    0.1813461   -0.7703395    0.6113025
   0.0191335   -0.2630328    0.0531182    0.5397350   -0.8350406   -0.1067393
   0.0193621   -0.2631341    0.0545562   -0.3039979   -0.9505061    0.0642131
   0.0214231   -0.2632359    0.0546554   -0.3084082    0.2896501   -0.9060835
   0.0214110   -0.2629985    0.0546900   -0.3836124    0.0473328   -0.9222804
   0.0193620   -0.2631210    0.0545346    0.1384567    0.5127370   -0.8473078
   0.0192336   -0.2631201    0.0545362   -0.1291077   -0.3166918   -0.9397007
   0.0192109   -0.2592264    0.0526561   -0.3160882    0.2679916    0.9100927
   0.0192164   -0.2578496    0.0540660    0.7593050   -0.6504575   -0.0190010
   0.0193629   -0.2576888    0.0538561    0.2920926   -0.9472861   -0.1316469
   0.0196066   -0.2574561    0.0533930    0.5299105   -0.7068875   -0.4685135
   0.0195383   -0.2575899    0.0536189    0.3223830   -0.9023358   -0.2861106
   0.0193869   -0.2573132    0.0531587    0.5144465   -0.1898144   -0.8362507
   0.0193577   -0.2577021    0.0541406    0.4535028   -0.8563636    0.2469344
   0.0190765   -0.2574197    0.0545495   -0.0751110    0.5601600    0.8249722
   0.0190716   -0.2572217    0.0543500   -0.7051594    0.5445697    0.4540859
   0.0192439   -0.2568462    0.0542406   -0.7659707    0.5642451    0.3080850
   0.0196578   -0.2564542    0.0535681   -0.6198557    0.6830493   -0.3862933
   0.0195908   -0.2567727    0.0531756   -0.1039258    0.3549622   -0.9290862
   0.0195657   -0.2564868    0.0536274   -0.6620737    0.6776517   -0.3200727
   0.0195593   -0.2564607    0.0538515   -0.6544975    0.7545102   -0.0484502
   0.0195546   -0.2564944    0.0541265   -0.6720626    0.7147175    0.1936769
   0.0193085   -0.2567890    0.0542700   -0.6580605    0.6680445    0.3473802
   0.0193359   -0.2567885    0.0531084    0.5813732   -0.1856692   -0.7921693
   0.0196056   -0.2571147    0.0532603    0.3031580   -0.2521968   -0.9189625
   0.0194370   -0.2581235    0.0516228    0.1029892    0.4284845    0.8976604
   0.0197079   -0.2584567    0.0517715   -0.1245631    0.4057789    0.9054433
   0.0197173   -0.2587304    0.0519361   -0.0110656    0.4772039    0.8787229
   0.0197338   -0.2591145    0.0520499    0.5894282    0.2037743    0.7816971
   0.0197505   -0.2594768    0.0521264    0.6350796    0.1907487    0.7485244
   0.0194951   -0.2590545    0.0523580    0.9208844    0.3307728    0.2063037
   0.0197220   -0.2588427    0.0519934    0.1872219    0.2359104    0.9535692
   0.0196034   -0.2591943    0.0525887    0.9305018    0.2154064    0.2962541
   0.0194584   -0.2590334    0.0526566    0.1782103    0.6666592    0.7237448
   0.0223533   -0.2558000    0.0539917    0.4159278    0.7983105    0.4355507
   0.0228835   -0.2561881    0.0541266    0.5443120    0.7502858    0.3752275
   0.0231534   -0.2565048    0.0542832    0.6089585    0.6601741    0.4397041
   0.0234217   -0.2564641    0.0537324    0.7078668    0.6373047    0.3045773
   0.0239211   -0.2569110    0.0532571    0.8369870    0.4951380    0.2330046
   0.0245321   -0.2582118    0.0535549    0.8538889    0.4235290    0.3024845
   0.0213141   -0.2558378    0.0545092    0.1128184    0.8577807    0.5014822
   0.0210577   -0.2559646    0.0547299   -0.0897415    0.8368366    0.5400472
   0.0207414   -0.2560336    0.0546839   -0.3268272    0.8874476    0.3249933
   0.0200527   -0.2563384    0.0545119   -0.4045077    0.8666673    0.2919953
   0.0218502   -0.2558026    0.0542588    0.2151388    0.8091781    0.5467596
   0.0200547   -0.2560958    0.0538839   -0.5305400    0.8352117    0.1447366
   0.0200541   -0.2561400    0.0540222   -0.2719347    0.9072023    0.3209913
   0.0200746   -0.2562550    0.0533883   -0.7478938    0.6622416   -0.0457271
   0.0200602   -0.2561322    0.0537353   -0.6960939    0.6951215   -0.1796090
   0.0203592   -0.2570766    0.0527301   -0.8580319   -0.5078937    0.0763238
   0.0204005   -0.2573773    0.0523020   -0.8520725   -0.3893368    0.3498418
   0.0201686   -0.2574738    0.0519561   -0.6649405   -0.2274832    0.7114109
   0.0201966   -0.2572336    0.0520684   -0.7455643   -0.3614377    0.5599078
   0.0196679   -0.2575876    0.0515903   -0.3434006   -0.0227375    0.9389137
   0.0201804   -0.2576894    0.0519054   -0.6253485   -0.0830619    0.7759123
   0.0199391   -0.2579245    0.0517374   -0.4434676    0.1035632    0.8902871
   0.0195785   -0.2580799    0.0516493   -0.2751088    0.2530444    0.9275148
   0.0196898   -0.2580488    0.0516688   -0.3061784    0.1892229    0.9329788
   0.0203894   -0.2571742    0.0528899   -0.9446559   -0.2538167    0.2078516
   0.0203623   -0.2567446    0.0531031   -0.5746260   -0.6424560    0.5070062
   0.0203584   -0.2567004    0.0531948   -0.4667187   -0.8837175   -0.0348858
   0.0201044   -0.2568660    0.0533976    0.4006041   -0.3374225   -0.8518582
   0.0198479   -0.2567945    0.0532048    0.2850510    0.0904158   -0.9542384
   0.0198222   -0.2563776    0.0534348   -0.4409823    0.7022921   -0.5588563
   0.0191311   -0.2579829    0.0542913    0.8213106   -0.5175721    0.2399333
   0.0190904   -0.2577557    0.0546855   -0.0291122   -0.9522255    0.3040050
   0.0191339   -0.2576846    0.0547203    0.8538778   -0.1070577    0.5093441
   0.0190826   -0.2576379    0.0547396   -0.1506706    0.6025663    0.7837169
   0.0190869   -0.2577660    0.0548584   -0.0860852   -0.0794663    0.9931135
   0.0200291   -0.2604112    0.0532079    0.3773836    0.2933010    0.8783827
   0.0200244   -0.2602207    0.0530052    0.5195500    0.8428553    0.1402236
   0.0197825   -0.2604108    0.0527627    0.3859282    0.4520879   -0.8041617
   0.0195109   -0.2601149    0.0527403    0.8138930    0.2410378   -0.5286577
   0.0194694   -0.2592905    0.0527537    0.2472411    0.1072259    0.9630028
   0.0195165   -0.2597611    0.0526133    0.9497553   -0.2130363    0.2293041
   0.0198115   -0.2611269    0.0530348    0.2095963   -0.5565677    0.8039290
   0.0200427   -0.2606694    0.0531878    0.4495953   -0.2720232    0.8508040
   0.0195797   -0.2614748    0.0526957    0.9644013   -0.0999379    0.2448317
   0.0195797   -0.2614748    0.0526957    0.9726753   -0.0797673    0.2180367
   0.0198634   -0.2618659    0.0524112    0.7028926    0.0228266    0.7109297
   0.0198922   -0.2624846    0.0525169    0.2765965    0.0968394    0.9560944
   0.0198702   -0.2620251    0.0524540    0.4200230    0.3017547    0.8558766
   0.0196316   -0.2624301    0.0525469    0.4239661    0.3750485    0.8243733
   0.0200689   -0.2610619    0.0529145    0.6497931   -0.5486950    0.5260254
   0.0198305   -0.2612557    0.0525175    0.9061648   -0.2354573   -0.3513192
   0.0200692   -0.2610693    0.0529054    0.8515530   -0.5076000    0.1311480
   0.0197693   -0.2624608    0.0534113    0.9542029    0.2743447    0.1192967
   0.0196367   -0.2626317    0.0527445    0.4603243    0.3626445    0.8103027
   0.0196118   -0.2627533    0.0529780    0.9796587   -0.1931021    0.0545932
   0.0196378   -0.2627878    0.0530361    0.7204007   -0.3386306   -0.6052703
   0.0216976   -0.2665148    0.0499187   -0.7599802   -0.2125429    0.6142114
   0.0216710   -0.2660671    0.0500984   -0.5714477   -0.5500853    0.6089775
   0.0214089   -0.2656170    0.0502796   -0.3322832    0.1829340    0.9252692
   0.0216498   -0.2658228    0.0504859   -0.7234954   -0.6747092   -0.1460202
   0.0215272   -0.2657566    0.0505113   -0.8167211    0.2766871   -0.5063704
   0.0211295   -0.2655862    0.0502383   -0.0151177   -0.0227752    0.9996263
   0.0216737   -0.2662701    0.0504364   -0.3405242    0.2841574   -0.8962688
   0.0214156   -0.2662616    0.0504332    0.2317368    0.3195477   -0.9187967
   0.0213890   -0.2657643    0.0505279    0.0084142    0.5290797   -0.8485304
   0.0211317   -0.2657717    0.0505487   -0.1491047    0.5776415   -0.8025572
   0.0217632   -0.2666338    0.0501158   -0.9276470    0.3065253   -0.2133385
   0.0212827   -0.2603117    0.0544029   -0.1594317    0.2591435   -0.9525892
   0.0214866   -0.2593539    0.0546479   -0.7382197    0.0374549   -0.6735198
   0.0215133   -0.2598230    0.0545052   -0.4349495    0.2020428   -0.8774951
   0.0210245   -0.2602691    0.0543423   -0.0947868    0.1546820   -0.9834068
   0.0210309   -0.2604249    0.0544098   -0.1918398   -0.7129795   -0.6744314
   0.0215461   -0.2604416    0.0544251   -0.2276561   -0.3075079   -0.9239110
   0.0212870   -0.2604112    0.0544276    0.0458781   -0.5315007   -0.8458145
   0.0214929   -0.2593470    0.0546384   -0.7074310   -0.0334713   -0.7059894
   0.0217417   -0.2591967    0.0543778   -0.6263082   -0.0483922   -0.7780721
   0.0239931   -0.2579659    0.0545171    0.7921955    0.4045360    0.4569211
   0.0237074   -0.2573950    0.0544776    0.6808819    0.4143995    0.6038815
   0.0213383   -0.2566882    0.0552802    0.1342291    0.4292336    0.8931635
   0.0231630   -0.2568933    0.0546854    0.5223942    0.4735844    0.7090995
   0.0220991   -0.2561919    0.0546713    0.2700575    0.6877600    0.6738361
   0.0215765   -0.2560459    0.0547154    0.2760807    0.7294138    0.6258873
   0.0213193   -0.2561581    0.0549428    0.1340666    0.6476913    0.7500148
   0.0228929   -0.2565886    0.0546092    0.4770612    0.5942592    0.6475095
   0.0226194   -0.2561728    0.0544127    0.4039756    0.7032304    0.5850390
   0.0209001   -0.2580224    0.0552247   -0.9746052   -0.1347301   -0.1788644
   0.0208925   -0.2580475    0.0552666   -0.9202041    0.2072109   -0.3320965
   0.0206113   -0.2575265    0.0551504   -0.5429180   -0.8213564    0.1749677
   0.0208859   -0.2578188    0.0550274   -0.8907476   -0.4435992   -0.0989369
   0.0206066   -0.2574925    0.0552781   -0.5084060   -0.4518174    0.7330651
   0.0208337   -0.2569522    0.0554260    0.0247848    0.2794646    0.9598361
   0.0208190   -0.2566070    0.0552943    0.0780568    0.4341985    0.8974290
   0.0205804   -0.2570406    0.0554480   -0.1256332   -0.0131108    0.9919901
   0.0217666   -0.2586519    0.0543907   -0.5427820   -0.0518975   -0.8382687
   0.0214301   -0.2581746    0.0545324   -0.5580553   -0.2051749   -0.8040382
   0.0211739   -0.2583036    0.0547586   -0.5899094   -0.2401767   -0.7709228
   0.0210025   -0.2584600    0.0550269   -0.8490445   -0.1067940   -0.5174152
   0.0211348   -0.2583298    0.0548022   -0.7631544   -0.2507431   -0.5955865
   0.0216800   -0.2631810    0.0545540   -0.4620544    0.1950273   -0.8651417
   0.0218827   -0.2620806    0.0545580   -0.5868241    0.0236220   -0.8093698
   0.0220617   -0.2625192    0.0543594   -0.8160872    0.1473943   -0.5588171
   0.0219897   -0.2630874    0.0543841   -0.7368484    0.0815581   -0.6711205
   0.0219370   -0.2631105    0.0544250   -0.5075806    0.2296999   -0.8304215
   0.0216353   -0.2609278    0.0544951   -0.4522531   -0.2509961   -0.8558435
   0.0218261   -0.2608798    0.0544053   -0.3758020   -0.1264094   -0.9180378
   0.0218117   -0.2605865    0.0543701   -0.2419166   -0.1247940   -0.9622384
   0.0200404   -0.2649367    0.0514054    0.2186751   -0.5560278    0.8018817
   0.0196125   -0.2643542    0.0519466    0.1063490   -0.5866777    0.8028071
   0.0202821   -0.2646877    0.0515502   -0.0500513   -0.5993597    0.7989135
   0.0197154   -0.2639657    0.0522208    0.0965722   -0.5513913    0.8286383
   0.0194846   -0.2643637    0.0519642   -0.0904139   -0.5990349    0.7956020
   0.0219518   -0.2670097    0.0511135   -0.3201965    0.9301815    0.1795454
   0.0217046   -0.2671034    0.0509034   -0.6708552   -0.0003821    0.7415883
   0.0216354   -0.2670375    0.0507957   -0.7204784   -0.1700814    0.6722970
   0.0216321   -0.2666022    0.0509971   -0.4966158   -0.2311694    0.8366202
   0.0214194   -0.2665652    0.0509410   -0.1843276   -0.4399024    0.8789250
   0.0222101   -0.2670292    0.0511163   -0.0666937    0.9947541    0.0775641
   0.0217320   -0.2639830    0.0540383   -0.3837002    0.4386214   -0.8126410
   0.0215214   -0.2636407    0.0543980   -0.3823400    0.4422348   -0.8113227
   0.0221432   -0.2645591    0.0531284   -0.8070490   -0.0932776   -0.5830706
   0.0220569   -0.2646910    0.0533543   -0.8966305    0.0146807   -0.4425362
   0.0226056   -0.2652455    0.0524036   -0.6733306    0.3650014   -0.6429618
   0.0225794   -0.2648392    0.0526538   -0.6932019    0.1486190   -0.7052542
   0.0225066   -0.2643012    0.0526824   -0.8039314   -0.3814376   -0.4562889
   0.0219890   -0.2638915    0.0538735   -0.9867222    0.1547635   -0.0492704
   0.0220089   -0.2638206    0.0537549   -0.9801476    0.0635392    0.1878121
   0.0219876   -0.2638016    0.0537247   -0.7604414   -0.2252816    0.6090789
   0.0219850   -0.2638851    0.0540149   -0.7455760    0.4004514   -0.5326867
   0.0220258   -0.2643225    0.0532327   -0.8873272   -0.2046331   -0.4132502
   0.0217302   -0.2636986    0.0535080   -0.9119054   -0.4067142   -0.0548824
   0.0227008   -0.2666478    0.0513145   -0.7819269    0.5766363   -0.2368142
   0.0229240   -0.2660881    0.0515835   -0.8149268    0.4838539   -0.3190292
   0.0229146   -0.2659515    0.0517168   -0.5991584    0.4618987   -0.6539563
   0.0224644   -0.2669840    0.0511483   -0.5772751    0.8160173   -0.0294825
   0.0211616   -0.2665183    0.0508705   -0.3117565   -0.4758782    0.8224037
   0.0197213   -0.2644620    0.0530514    0.4836553    0.2442180   -0.8404969
   0.0197228   -0.2644980    0.0530482    0.5720679   -0.3073252   -0.7604535
   0.0194766   -0.2647833    0.0531960   -0.0074835   -0.9421310   -0.3351614
   0.0189194   -0.2637662    0.0528420    0.7767633    0.3739600   -0.5067473
   0.0194368   -0.2639960    0.0532095    0.3255079    0.7542113   -0.5702719
   0.0194674   -0.2647489    0.0535022   -0.3253188   -0.9442382    0.0508122
   0.0194496   -0.2647299    0.0535103   -0.7416987    0.1339243    0.6572269
   0.0194557   -0.2644404    0.0533538   -0.1185695    0.2779682    0.9532444
   0.0194374   -0.2640356    0.0532755   -0.1646099    0.1234524    0.9786026
   0.0194665   -0.2647248    0.0535135   -0.1436041    0.6126040    0.7772350
   0.0194353   -0.2639955    0.0532678   -0.1065373    0.7642741    0.6360306
   0.0188922   -0.2632731    0.0529463    0.9032956   -0.0498247   -0.4261158
   0.0188909   -0.2637308    0.0527842    0.9481801    0.2011274   -0.2459720
   0.0188838   -0.2630460    0.0528100    0.8050277   -0.5235414   -0.2789890
   0.0189393   -0.2639511    0.0523937    0.8585255    0.3387058    0.3849836
   0.0189284   -0.2638911    0.0527118    0.9061510    0.3777723   -0.1902062
   0.0194585   -0.2639766    0.0522458   -0.1012973   -0.4790814    0.8719059
   0.0191907   -0.2637525    0.0522060   -0.1163295   -0.1523787    0.9814521
   0.0194315   -0.2635251    0.0524206   -0.3756337   -0.3799571    0.8452999
   0.0205017   -0.2651214    0.0513408   -0.1031628   -0.6399323    0.7614749
   0.0202880   -0.2647866    0.0514860   -0.1158197   -0.5347380    0.8370430
   0.0211352   -0.2661269    0.0511461   -0.3344927   -0.3891854    0.8582828
   0.0208766   -0.2660205    0.0509757   -0.6489013   -0.3469092    0.6771862
   0.0208717   -0.2655831    0.0502435    0.1520969   -0.0105741    0.9883090
   0.0206059   -0.2654438    0.0503238    0.5007808    0.1981204    0.8425954
   0.0211060   -0.2654038    0.0508622    0.0266990    0.4989805   -0.8662018
   0.0208477   -0.2653886    0.0508479    0.1622697    0.3453216   -0.9243493
   0.0208501   -0.2655874    0.0511809   -0.4446211   -0.4637483    0.7663221
   0.0205686   -0.2651672    0.0513224   -0.4042121   -0.6877982    0.6029479
   0.0205656   -0.2651298    0.0513540   -0.3311330   -0.5571044    0.7615679
   0.0203737   -0.2647086    0.0506536    0.8545741    0.1628069   -0.4931502
   0.0205621   -0.2647973    0.0507967    0.5597614    0.0729682   -0.8254349
   0.0208205   -0.2648897    0.0509428    0.4703145    0.0296489   -0.8820007
   0.0207379   -0.2648576    0.0508917    0.4945579    0.0672507   -0.8665390
   0.0205908   -0.2650875    0.0501972    0.4232052    0.3988560    0.8135178
   0.0204303   -0.2650086    0.0502264    0.7859379    0.4930571    0.3730902
   0.0197161   -0.2628930    0.0532088    0.4897260   -0.7488282    0.4465701
   0.0193853   -0.2629453    0.0531699    0.2021471   -0.9572136    0.2070718
   0.0193841   -0.2628157    0.0529390    0.0566387   -0.9884435   -0.1406112
   0.0191294   -0.2628514    0.0529111    0.4343477   -0.8486454   -0.3018991
   0.0193071   -0.2575545    0.0544974    0.7464548   -0.3297401    0.5779937
   0.0196198   -0.2575694    0.0536321    0.3515468   -0.8688936   -0.3484808
   0.0196173   -0.2576400    0.0538901    0.2899047   -0.9548525   -0.0648997
   0.0196191   -0.2574490    0.0533969    0.4404786   -0.5669885   -0.6960622
   0.0196056   -0.2575594    0.0542177    0.2720759   -0.8481072    0.4546305
   0.0195983   -0.2574575    0.0543232    0.4258215   -0.6163666    0.6623958
   0.0193418   -0.2575449    0.0544784    0.2484657   -0.3971252    0.8834910
   0.0192715   -0.2569836    0.0544691   -0.7243950    0.3711348    0.5809569
   0.0193114   -0.2569463    0.0544881   -0.5592392    0.6033648    0.5685090
   0.0198149   -0.2563228    0.0536362   -0.5319629    0.8147478   -0.2306543
   0.0198625   -0.2571100    0.0532739    0.3682760   -0.3248555   -0.8711152
   0.0198043   -0.2562606    0.0539552   -0.5724784    0.8199156   -0.0025986
   0.0198007   -0.2563110    0.0542225   -0.5546735    0.7720464    0.3102927
   0.0195561   -0.2566352    0.0543523   -0.5625839    0.6242533    0.5420398
   0.0196915   -0.2580993    0.0516797   -0.2841314    0.1995452    0.9377905
   0.0199578   -0.2583492    0.0518325   -0.3654741    0.2707778    0.8905662
   0.0199721   -0.2586927    0.0519651   -0.1470468    0.2846416    0.9472890
   0.0200064   -0.2593717    0.0519431    0.6879329   -0.0383757    0.7247590
   0.0200064   -0.2593717    0.0519431    0.9229783    0.0723093    0.3779980
   0.0197541   -0.2595593    0.0521358    0.6235859    0.0647186    0.7790714
   0.0197079   -0.2594972    0.0521626    0.6821068   -0.0077764    0.7312112
   0.0196068   -0.2596296    0.0523875    0.9767316   -0.0527474    0.2078777
   0.0199791   -0.2588432    0.0519865   -0.0165451   -0.0030417    0.9998585
   0.0234266   -0.2568862    0.0544096    0.6442833    0.5558810    0.5252574
   0.0236968   -0.2569918    0.0540821    0.7702398    0.5222144    0.3660912
   0.0218352   -0.2559635    0.0544745    0.2382561    0.7880521    0.5676337
   0.0213155   -0.2559748    0.0547368    0.1384968    0.7982719    0.5861575
   0.0208051   -0.2561448    0.0549260   -0.1264493    0.7875754    0.6031049
   0.0202985   -0.2562757    0.0548428   -0.5046936    0.8071653    0.3062165
   0.0205500   -0.2561826    0.0548970   -0.2346412    0.8386450    0.4915467
   0.0198336   -0.2562973    0.0542302   -0.4469644    0.8163902    0.3656911
   0.0198230   -0.2564337    0.0544575   -0.6649129    0.6184667    0.4187957
   0.0200515   -0.2564331    0.0547589   -0.5613582    0.7410956    0.3683128
   0.0199755   -0.2561670    0.0540062   -0.5026930    0.8545779    0.1303699
   0.0203912   -0.2571351    0.0527043   -0.9380471   -0.3460780    0.0172518
   0.0204140   -0.2578121    0.0521014   -0.7655961   -0.1333333    0.6293527
   0.0204400   -0.2578370    0.0521410   -0.7549469   -0.1074735    0.6469193
   0.0204135   -0.2573962    0.0523323   -0.8511877   -0.3796713    0.3623938
   0.0202047   -0.2581787    0.0519224   -0.6386019    0.1398155    0.7567293
   0.0204030   -0.2574323    0.0528583   -0.9954527    0.0311666   -0.0900140
   0.0204052   -0.2572139    0.0529593   -0.9589295    0.0427270    0.2804079
   0.0204163   -0.2576419    0.0527442   -0.9167270    0.0446690   -0.3970093
   0.0204439   -0.2567822    0.0531609   -0.8073982   -0.4494787    0.3822003
   0.0203535   -0.2567266    0.0534734   -0.0178605   -0.8604067   -0.5092950
   0.0206206   -0.2568973    0.0534063   -0.5881384   -0.7772327   -0.2236125
   0.0200715   -0.2569042    0.0533784    0.5749544   -0.1308682   -0.8076515
   0.0203613   -0.2569782    0.0536480    0.1954072   -0.6468139   -0.7371891
   0.0202837   -0.2570483    0.0536123    0.6915589   -0.4121237   -0.5932119
   0.0201074   -0.2569221    0.0534074    0.6332595   -0.1818144   -0.7522805
   0.0202469   -0.2606307    0.0531161    0.8586159   -0.2529786    0.4458481
   0.0203338   -0.2604986    0.0528904    0.8683544    0.4686432   -0.1622780
   0.0200049   -0.2609206    0.0526805    0.6005334    0.0320197   -0.7989583
   0.0198091   -0.2608714    0.0526043    0.5362224    0.3186352   -0.7816247
   0.0195507   -0.2607724    0.0524472    0.6304325    0.4260017   -0.6489048
   0.0195245   -0.2603373    0.0526474    0.5439020    0.3645830   -0.7558107
   0.0203029   -0.2605701    0.0528560    0.8049555   -0.1829293   -0.5644320
   0.0193643   -0.2601910    0.0524076    0.9887591   -0.0236321   -0.1476376
   0.0195129   -0.2603313    0.0526402    0.7589465    0.2994216   -0.5782274
   0.0195210   -0.2600749    0.0522099    0.6281344   -0.3084960    0.7143370
   0.0195548   -0.2600613    0.0521854    0.6937062   -0.1976826    0.6925989
   0.0198064   -0.2613469    0.0524742    0.9806215    0.1918656    0.0396124
   0.0199769   -0.2617884    0.0522777    0.8431739    0.3695231    0.3905258
   0.0201337   -0.2621350    0.0524150    0.3771131    0.3605412    0.8531095
   0.0198935   -0.2625123    0.0525207    0.4275645    0.3347801    0.8397088
   0.0201666   -0.2627825    0.0524079    0.5358968    0.1485209    0.8311174
   0.0201489   -0.2624312    0.0524194    0.3687221   -0.0111842    0.9294724
   0.0201298   -0.2619517    0.0522088    0.4979551    0.7452629    0.4434230
   0.0200686   -0.2610422    0.0528815    0.8892864   -0.3380739   -0.3080192
   0.0199066   -0.2628485    0.0526563    0.4960791    0.2080195    0.8429908
   0.0196634   -0.2631553    0.0527216   -0.0507557   -0.2797490    0.9587306
   0.0194051   -0.2630972    0.0526336   -0.1965471   -0.5853079    0.7866282
   0.0196397   -0.2629096    0.0531978    0.2309309   -0.9413920   -0.2458698
   0.0218153   -0.2662021    0.0503179   -0.9926332   -0.0770354   -0.0935143
   0.0213719   -0.2652527    0.0501556   -0.0551530    0.2704542    0.9611517
   0.0216425   -0.2655900    0.0503026   -0.1029710    0.5529509    0.8268266
   0.0216441   -0.2657288    0.0505293   -0.1812121    0.9827148   -0.0378660
   0.0211139   -0.2652351    0.0501523    0.0347461    0.2042857    0.9782945
   0.0213629   -0.2654135    0.0508725    0.0589929    0.5985945   -0.7988770
   0.0216211   -0.2654358    0.0508989    0.1950566    0.6559758   -0.7291424
   0.0215406   -0.2603221    0.0544105   -0.1356993    0.0067614   -0.9907270
   0.0216394   -0.2597871    0.0544414   -0.4822203    0.0610560   -0.8739198
   0.0217972   -0.2602907    0.0543511   -0.2498747    0.0017572   -0.9682766
   0.0220196   -0.2595558    0.0542747   -0.4446975   -0.1125314   -0.8885836
   0.0219986   -0.2591206    0.0542403   -0.3880128   -0.0017193   -0.9216524
   0.0208101   -0.2563408    0.0551263    0.0074858    0.6635078    0.7481319
   0.0209208   -0.2578875    0.0549973   -0.8854995   -0.3194612   -0.3373948
   0.0208849   -0.2576891    0.0547967   -0.5924218   -0.5952793   -0.5428434
   0.0206226   -0.2575996    0.0548263   -0.2788781   -0.9381376   -0.2052434
   0.0203478   -0.2573659    0.0550738   -0.6436622   -0.6121766    0.4592807
   0.0203580   -0.2574675    0.0548755   -0.5145665   -0.8306648    0.2126438
   0.0203769   -0.2569982    0.0553844   -0.3975089   -0.1241693    0.9091582
   0.0205750   -0.2569311    0.0554242   -0.1041100    0.2771871    0.9551589
   0.0205601   -0.2565690    0.0553004   -0.0517507    0.4808831    0.8752561
   0.0216852   -0.2580565    0.0543718   -0.4704052   -0.3037387   -0.8285299
   0.0219564   -0.2582936    0.0542742   -0.3930594   -0.1137181   -0.9124541
   0.0214154   -0.2578454    0.0544573   -0.5984250   -0.2889950   -0.7472412
   0.0211451   -0.2576709    0.0546288   -0.5751572   -0.2366512   -0.7830648
   0.0209532   -0.2577516    0.0547709   -0.6864762   -0.3198330   -0.6530370
   0.0217063   -0.2635877    0.0543050   -0.4206573    0.4445311   -0.7908473
   0.0221389   -0.2619731    0.0543689   -0.6142520    0.1341756   -0.7776190
   0.0221335   -0.2618697    0.0543724   -0.4929534   -0.0927856   -0.8650941
   0.0221653   -0.2624359    0.0542156   -0.8219137    0.2593373   -0.5071509
   0.0221796   -0.2626331    0.0540212   -0.9477162    0.2972810   -0.1160089
   0.0221192   -0.2628208    0.0539315   -0.9631393    0.1353842    0.2324518
   0.0221211   -0.2629556    0.0541601   -0.9751027    0.0325677   -0.2193491
   0.0220690   -0.2635251    0.0541852   -0.8775814    0.2542085   -0.4064837
   0.0219635   -0.2635515    0.0542342   -0.3614659    0.4424196   -0.8207358
   0.0221108   -0.2614141    0.0543632   -0.1095579    0.0700973   -0.9915056
   0.0220738   -0.2606648    0.0543456   -0.0504803   -0.0754445   -0.9958714
   0.0207715   -0.2643583    0.0519113    0.0258811   -0.5509762    0.8341195
   0.0204991   -0.2641374    0.0520867   -0.0080849   -0.6426613    0.7661078
   0.0199468   -0.2635348    0.0524187    0.0300759   -0.5040714    0.8631382
   0.0196890   -0.2635443    0.0524444    0.0367434   -0.5041398    0.8628401
   0.0217633   -0.2666083    0.0510002    0.0781320   -0.0186844    0.9967679
   0.0222046   -0.2668257    0.0509192    0.1495326    0.3249291    0.9338421
   0.0216772   -0.2666184    0.0510222   -0.1375568   -0.0750018    0.9876502
   0.0216496   -0.2660986    0.0510815    0.0878385   -0.2151233    0.9726286
   0.0216749   -0.2665636    0.0510168   -0.0675098   -0.0564949    0.9961178
   0.0213933   -0.2661430    0.0511624    0.0399959   -0.4006664    0.9153506
   0.0224628   -0.2668433    0.0509227   -0.2463053    0.4997967    0.8303836
   0.0222935   -0.2643931    0.0529212   -0.7255094   -0.1186535   -0.6779067
   0.0229571   -0.2650500    0.0520653   -0.8481363    0.1001949   -0.5202171
   0.0226996   -0.2647427    0.0524868   -0.7850339    0.1373590   -0.6040317
   0.0228881   -0.2655449    0.0519661   -0.6883448    0.3041594   -0.6585351
   0.0225546   -0.2643511    0.0526614   -0.7392947   -0.2943646   -0.6056342
   0.0225581   -0.2642933    0.0523975   -0.3935456   -0.9182640   -0.0437385
   0.0223312   -0.2641589    0.0524497   -0.6407183   -0.7281606    0.2434383
   0.0222669   -0.2638286    0.0528305   -0.8271958   -0.4859641    0.2821099
   0.0222629   -0.2637823    0.0529115   -0.9008598   -0.2079652   -0.3810540
   0.0221024   -0.2633906    0.0539581   -0.9310151    0.0279547    0.3639086
   0.0217293   -0.2636801    0.0535278   -0.5897872   -0.4049895    0.6986663
   0.0219606   -0.2632853    0.0537880   -0.5933271   -0.1277727    0.7947560
   0.0220121   -0.2640267    0.0531698   -0.7807584   -0.1209113   -0.6130227
   0.0217156   -0.2636744    0.0535186   -0.9298506   -0.3204892    0.1807331
   0.0217884   -0.2635405    0.0532929   -0.8014271    0.0096553   -0.5980145
   0.0220040   -0.2638537    0.0531577   -0.7118040   -0.0802684   -0.6977765
   0.0226759   -0.2666413    0.0510256   -0.7635330    0.3383350    0.5500425
   0.0229082   -0.2662161    0.0512330   -0.9171301    0.3929561    0.0667671
   0.0227054   -0.2666083    0.0510422   -0.7318104    0.4241876    0.5334026
   0.0230744   -0.2657879    0.0514384   -0.9600227    0.2761683   -0.0456886
   0.0229937   -0.2659213    0.0516638   -0.8223084    0.3498022   -0.4488288
   0.0229348   -0.2661559    0.0512619   -0.9216154    0.3735013    0.1054601
   0.0197374   -0.2644693    0.0530623    0.8408213    0.0254855   -0.5407126
   0.0196992   -0.2641052    0.0532290    0.8488748    0.5201006   -0.0943763
   0.0197310   -0.2647419    0.0532266    0.5438618   -0.8073232   -0.2290056
   0.0196626   -0.2640315    0.0532613    0.3813270    0.6207347    0.6850388
   0.0195698   -0.2647347    0.0535134    0.2687197   -0.7624294    0.5886349
   0.0194670   -0.2647981    0.0536249   -0.8761688    0.1011584    0.4712698
   0.0197117   -0.2644173    0.0533760    0.3564437    0.4001118    0.8443094
   0.0197243   -0.2647263    0.0534932    0.6332599   -0.0982493    0.7676777
   0.0188400   -0.2631588    0.0527558    0.9833350   -0.1817050   -0.0059597
   0.0187838   -0.2635904    0.0525536    0.9875251    0.1162779    0.1061775
   0.0191366   -0.2628583    0.0526174    0.2350286   -0.8735258    0.4262795
   0.0188905   -0.2630851    0.0526301    0.7842577   -0.5227009    0.3342509
   0.0189286   -0.2636629    0.0522360    0.6487694    0.0819232    0.7565625
   0.0192327   -0.2634724    0.0523378   -0.5070679   -0.3234172    0.7989265
   0.0191738   -0.2634502    0.0523022   -0.3793421   -0.3282351    0.8650788
   0.0189161   -0.2634393    0.0522936    0.3531447   -0.3878896    0.8513698
   0.0192534   -0.2630385    0.0525393   -0.5701188   -0.4693690    0.6742828
   0.0213656   -0.2656592    0.0512840    0.1128244   -0.3203232    0.9405656
   0.0211085   -0.2656452    0.0512684   -0.2853754   -0.3578511    0.8891026
   0.0208536   -0.2651863    0.0501631    0.1821223    0.2124190    0.9600571
   0.0213371   -0.2649888    0.0510883    0.2071525    0.3484716   -0.9141419
   0.0210794   -0.2649564    0.0510425    0.2585220    0.1599510   -0.9526710
   0.0208241   -0.2651643    0.0514003   -0.2005532   -0.4753296    0.8566447
   0.0203030   -0.2646518    0.0505611    0.7519518    0.3175644   -0.5776862
   0.0205343   -0.2642357    0.0507848    0.5573929   -0.0448518   -0.8290365
   0.0206556   -0.2642853    0.0508620    0.4770521   -0.0640011   -0.8765416
   0.0210510   -0.2643862    0.0510190    0.3195603   -0.0161421   -0.9474284
   0.0207856   -0.2641803    0.0509164    0.4195456   -0.2103619   -0.8830229
   0.0205861   -0.2649763    0.0501649    0.2073065    0.0949893    0.9736534
   0.0203209   -0.2648746    0.0502836    0.7602996    0.3511895    0.5464526
   0.0198701   -0.2573486    0.0534547    0.4420928   -0.6923123   -0.5703137
   0.0198715   -0.2574875    0.0536813    0.4406641   -0.8203036   -0.3645781
   0.0198702   -0.2575727    0.0539326    0.4615216   -0.8871002   -0.0071409
   0.0198550   -0.2574389    0.0542847    0.8786816   -0.3990346    0.2620877
   0.0195721   -0.2570635    0.0545932    0.0478241   -0.1483521    0.9877776
   0.0198550   -0.2574389    0.0542847    0.8986589   -0.2768226    0.3402667
   0.0198296   -0.2570616    0.0545808   -0.2646668   -0.4228806    0.8666738
   0.0193147   -0.2570662    0.0546074   -0.4656019    0.2812445    0.8391165
   0.0195647   -0.2568810    0.0545299   -0.3858346    0.4752713    0.7907268
   0.0201190   -0.2572150    0.0535278    0.6166322   -0.5360367   -0.5765668
   0.0198024   -0.2564518    0.0544483   -0.6154557    0.5744731    0.5396248
   0.0202090   -0.2582802    0.0519635   -0.4112706    0.0521227    0.9100218
   0.0202254   -0.2586272    0.0520066   -0.0006184    0.0714504    0.9974440
   0.0202826   -0.2596824    0.0518120    0.6497507    0.2571458    0.7153321
   0.0202639   -0.2593136    0.0518347    0.4186884   -0.1661507    0.8928012
   0.0200064   -0.2593717    0.0519431    0.9251159    0.0887771    0.3691601
   0.0202364   -0.2588433    0.0519791    0.2074647   -0.1961983    0.9583656
   0.0200262   -0.2598054    0.0520342    0.3726399    0.2113827    0.9035800
   0.0197780   -0.2600189    0.0521060    0.2382952    0.0281709    0.9707841
   0.0202989   -0.2563867    0.0550823   -0.4335799    0.7103715    0.5544193
   0.0200517   -0.2565592    0.0549912   -0.6411721    0.5587921    0.5259750
   0.0205524   -0.2563306    0.0551196   -0.1447919    0.6974858    0.7018182
   0.0198103   -0.2566977    0.0546256   -0.6522793    0.1491480    0.7431599
   0.0198443   -0.2565701    0.0546861   -0.8519185    0.3190598    0.4152539
   0.0205450   -0.2575191    0.0525336   -0.9429098   -0.2243141   -0.2461794
   0.0206981   -0.2579449    0.0523149   -0.3777902   -0.5113107    0.7719041
   0.0204670   -0.2583462    0.0520655   -0.2376519   -0.3069448    0.9215783
   0.0206943   -0.2578863    0.0523706   -0.6505631   -0.7381284    0.1787012
   0.0203991   -0.2574827    0.0531255   -0.8426082    0.1788821    0.5079493
   0.0204041   -0.2576492    0.0527580   -0.8258834    0.1972792   -0.5282022
   0.0205163   -0.2573547    0.0531901   -0.7385318   -0.0195281    0.6739357
   0.0204203   -0.2577218    0.0527251   -0.7797791   -0.0753291   -0.6215064
   0.0206220   -0.2569005    0.0533539   -0.8002367   -0.4056188    0.4416952
   0.0206493   -0.2569252    0.0533948   -0.9156500   -0.3553005    0.1880072
   0.0206877   -0.2570621    0.0536239   -0.7213866   -0.6696808    0.1764341
   0.0206214   -0.2570177    0.0536415   -0.2174442   -0.8992312   -0.3796068
   0.0203666   -0.2571761    0.0538475    0.4576424   -0.7346738   -0.5008171
   0.0201198   -0.2573428    0.0537594    0.5930675   -0.7120785   -0.3757860
   0.0203558   -0.2571862    0.0538424    0.6414668   -0.6568826   -0.3962646
   0.0195519   -0.2607877    0.0524309    0.8020043    0.4664237   -0.3731462
   0.0195426   -0.2607670    0.0524399    0.8321198    0.4000489   -0.3841062
   0.0193807   -0.2606247    0.0522078    0.9383654    0.1114130    0.3271966
   0.0198056   -0.2605598    0.0520830    0.0047859   -0.0774274    0.9969865
   0.0195477   -0.2605426    0.0520638    0.3065893   -0.1256420    0.9435132
   0.0198490   -0.2614469    0.0521392    0.9176354    0.3504457    0.1874384
   0.0197289   -0.2612093    0.0522436    0.8779118    0.4636316    0.1196517
   0.0201335   -0.2619070    0.0519389    0.5536331    0.6321274    0.5421303
   0.0199480   -0.2616514    0.0520488    0.8505153    0.3434176    0.3983566
   0.0203926   -0.2620525    0.0521741    0.1903307    0.7804535    0.5955389
   0.0204030   -0.2623351    0.0523347    0.2896765    0.1586060    0.9438918
   0.0204331   -0.2628980    0.0522630    0.2920653   -0.0065100    0.9563762
   0.0204416   -0.2630823    0.0522815    0.4403735    0.2042447    0.8742741
   0.0201769   -0.2630192    0.0524754    0.6640941    0.1756031    0.7267342
   0.0203957   -0.2619872    0.0519136    0.0733733    0.8131127    0.5774635
   0.0199206   -0.2631410    0.0526887    0.2748582   -0.2906829    0.9164914
   0.0201101   -0.2630703    0.0525630    0.6106277    0.0189123    0.7916919
   0.0216284   -0.2652502    0.0501684   -0.0472858    0.2481747    0.9675605
   0.0213584   -0.2649508    0.0500943   -0.0465268    0.0349618    0.9983050
   0.0218866   -0.2652603    0.0501754   -0.0001486    0.2605841    0.9654511
   0.0218981   -0.2655652    0.0503256   -0.1535670    0.7749871    0.6130352
   0.0218946   -0.2656211    0.0505903   -0.3312068    0.9415770   -0.0611122
   0.0218810   -0.2655073    0.0509332    0.1501385    0.9690663    0.1958801
   0.0218143   -0.2654688    0.0509480    0.6913963    0.6500394   -0.3153092
   0.0216024   -0.2651486    0.0510867    0.4538293    0.5456635   -0.7044788
   0.0220496   -0.2601555    0.0542894   -0.1835155   -0.0915636   -0.9787432
   0.0220268   -0.2597009    0.0542829   -0.3250846   -0.0497648   -0.9443746
   0.0222065   -0.2596728    0.0542288   -0.3426995   -0.1512206   -0.9271944
   0.0222836   -0.2596391    0.0541697   -0.4676300   -0.1581056   -0.8696694
   0.0222555   -0.2590867    0.0541751   -0.3668421    0.0608887   -0.9282884
   0.0222628   -0.2592113    0.0541542   -0.4859144   -0.0382789   -0.8731678
   0.0208784   -0.2574673    0.0546081   -0.0811674   -0.6944634   -0.7149352
   0.0211400   -0.2575440    0.0545845   -0.4424889   -0.4553696   -0.7725556
   0.0206242   -0.2575161    0.0545742    0.1276551   -0.8936396   -0.4302470
   0.0200882   -0.2571963    0.0547997   -0.7277069   -0.5351005    0.4290806
   0.0200702   -0.2568497    0.0551484   -0.7608036   -0.0912720    0.6425319
   0.0203220   -0.2569853    0.0553660   -0.5343643   -0.1652255    0.8289483
   0.0203697   -0.2575556    0.0545446   -0.1431983   -0.9648428   -0.2203922
   0.0200982   -0.2573130    0.0546446   -0.5061169   -0.7985046    0.3259387
   0.0203060   -0.2566216    0.0552647   -0.3887841    0.3863884    0.8363916
   0.0219428   -0.2579797    0.0541884   -0.4516446   -0.3089791   -0.8369881
   0.0216777   -0.2578162    0.0541918   -0.4331007   -0.7918339   -0.4306075
   0.0219399   -0.2579114    0.0541595   -0.3828212   -0.5608748   -0.7340759
   0.0222239   -0.2584642    0.0542072   -0.4560509   -0.1165882   -0.8822838
   0.0222071   -0.2580746    0.0540960   -0.5444068   -0.3679670   -0.7538047
   0.0214202   -0.2574978    0.0543276   -0.7228931   -0.4931745   -0.4839468
   0.0222355   -0.2623906    0.0541358   -0.9251991    0.2070998   -0.3179880
   0.0222274   -0.2619555    0.0543370   -0.7655753    0.2162920   -0.6058978
   0.0223947   -0.2618474    0.0541506   -0.4647328    0.4807981   -0.7435433
   0.0221630   -0.2622581    0.0539189   -0.9008431    0.0876477    0.4252054
   0.0220951   -0.2626837    0.0537033   -0.9500737    0.3060618   -0.0607143
   0.0219527   -0.2631261    0.0537829   -0.6990848    0.2544408    0.6682368
   0.0221545   -0.2622507    0.0539062   -0.9059700    0.0024625    0.4233347
   0.0223686   -0.2614397    0.0543975    0.0459764    0.2282201   -0.9725234
   0.0223573   -0.2612121    0.0543959    0.0857346   -0.0171506   -0.9961704
   0.0223302   -0.2606547    0.0543617   -0.0363585   -0.1801660   -0.9829640
   0.0210295   -0.2643675    0.0519160    0.0020486   -0.4263380    0.9045616
   0.0210026   -0.2639158    0.0520905    0.1004555   -0.4620760    0.8811325
   0.0207826   -0.2639648    0.0521792    0.5121396   -0.4380352    0.7388087
   0.0207499   -0.2640350    0.0521452    0.3422289   -0.6450935    0.6831791
   0.0204883   -0.2639783    0.0522131   -0.0322617   -0.4702904    0.8819218
   0.0207456   -0.2639846    0.0522153    0.3559538   -0.5568558    0.7504722
   0.0202045   -0.2635309    0.0524014    0.1702320   -0.2427318    0.9550405
   0.0219348   -0.2666014    0.0509834    0.1778011   -0.1013866    0.9788297
   0.0221914   -0.2665550    0.0508972    0.2133676   -0.0557439    0.9753804
   0.0217941   -0.2656035    0.0511756    0.5595831   -0.0122857    0.8286832
   0.0219071   -0.2660889    0.0510549    0.1720441   -0.1782560    0.9688269
   0.0224486   -0.2665269    0.0508410   -0.0902023   -0.0196166    0.9957303
   0.0228346   -0.2646599    0.0523454   -0.8241909    0.0375720   -0.5650643
   0.0230764   -0.2649195    0.0518402   -0.8875096    0.0194935   -0.4603767
   0.0230001   -0.2654859    0.0518656   -0.8471179    0.1864624   -0.4976174
   0.0228935   -0.2644776    0.0520365   -0.9180792   -0.2909058   -0.2692663
   0.0228720   -0.2646128    0.0522638   -0.9484787   -0.1486579   -0.2798018
   0.0228228   -0.2644196    0.0523509   -0.8117309   -0.4628225   -0.3562137
   0.0228259   -0.2643582    0.0520887   -0.6862098   -0.7195671   -0.1064865
   0.0222926   -0.2641403    0.0524213   -0.5702511   -0.6644156    0.4830792
   0.0223175   -0.2644559    0.0520207   -0.2716243   -0.9229530   -0.2727234
   0.0225656   -0.2641965    0.0518612   -0.3608913   -0.4235673   -0.8308720
   0.0222892   -0.2641007    0.0524748   -0.7249376   -0.5384618    0.4295630
   0.0221814   -0.2637184    0.0526468   -0.8352842   -0.4241873    0.3498078
   0.0219847   -0.2634853    0.0531918   -0.6062031    0.1809971   -0.7744404
   0.0221345   -0.2634180    0.0530745   -0.9708974    0.0229349   -0.2383951
   0.0217424   -0.2632399    0.0537209   -0.7893321   -0.0049973    0.6139462
   0.0219579   -0.2630618    0.0534152   -0.5194344    0.4509237   -0.7258483
   0.0217007   -0.2631025    0.0534917   -0.8382151    0.5322761   -0.1186488
   0.0224368   -0.2663025    0.0508811   -0.0554635   -0.0121658    0.9983866
   0.0228903   -0.2660801    0.0510041   -0.8113199    0.2210072    0.5412169
   0.0226944   -0.2663146    0.0508869   -0.2321771    0.2381994    0.9430561
   0.0231119   -0.2653546    0.0516405   -0.9619831    0.1381589   -0.2355859
   0.0230757   -0.2656516    0.0512107   -0.9692890    0.1812580    0.1662060
   0.0229337   -0.2660244    0.0510320   -0.8140725    0.2835688    0.5068280
   0.0198105   -0.2646068    0.0532926    0.9959122   -0.0350355    0.0832555
   0.0188785   -0.2634588    0.0523279    0.8633242   -0.2147781    0.4566637
   0.0189068   -0.2633035    0.0524013    0.7612386   -0.4131578    0.4998163
   0.0191470   -0.2629970    0.0524734   -0.0592682   -0.5643061    0.8234354
   0.0190242   -0.2630297    0.0525331    0.5312287   -0.5768099    0.6205533
   0.0215969   -0.2652067    0.0514443    0.3359482   -0.4079892    0.8489309
   0.0213389   -0.2652189    0.0514764   -0.0253511   -0.4381993    0.8985203
   0.0213096   -0.2644539    0.0511043    0.2717515    0.0326294   -0.9618141
   0.0215547   -0.2650247    0.0511418    0.5068743    0.2231084   -0.8326470
   0.0202028   -0.2645663    0.0504210    0.9736481    0.2157953   -0.0737687
   0.0202759   -0.2641508    0.0506517    0.5100722   -0.0062450   -0.8601089
   0.0202403   -0.2641331    0.0506231    0.7942127   -0.0002703   -0.6076398
   0.0205218   -0.2639558    0.0507176    0.4574615   -0.4755589   -0.7513805
   0.0212827   -0.2639021    0.0510673    0.2816004   -0.5694734   -0.7722702
   0.0213210   -0.2644453    0.0511085    0.3857022    0.0066854   -0.9225991
   0.0210328   -0.2640115    0.0510056    0.3988916   -0.4618804   -0.7921818
   0.0210270   -0.2638139    0.0508059    0.2679189   -0.9497828   -0.1616542
   0.0207741   -0.2638792    0.0507643    0.1579766   -0.9772002   -0.1418563
   0.0210867   -0.2646741    0.0501198    0.0302735   -0.0708107    0.9970303
   0.0208257   -0.2646198    0.0501333    0.0319915   -0.0616237    0.9975866
   0.0205665   -0.2645726    0.0501437    0.1467216    0.0000139    0.9891778
   0.0203034   -0.2644757    0.0501765    0.6847777    0.0373206    0.7277958
   0.0201199   -0.2574521    0.0539996    0.5457401   -0.8063521   -0.2279563
   0.0198550   -0.2574389    0.0542847    0.9688655   -0.2318440    0.0868793
   0.0201144   -0.2574711    0.0542814    0.3496177   -0.9321173    0.0944714
   0.0198550   -0.2574389    0.0542847    0.6264619   -0.6831107    0.3753736
   0.0199813   -0.2571461    0.0547167   -0.6645156   -0.4405040    0.6036351
   0.0204941   -0.2588186    0.0519262    0.2114590   -0.2079873    0.9550007
   0.0204849   -0.2588200    0.0519291    0.2714733   -0.2142834    0.9382883
   0.0205476   -0.2597401    0.0516108    0.3810541   -0.3089499    0.8714056
   0.0203985   -0.2598213    0.0517527    0.8556499    0.0079965    0.5174932
   0.0203452   -0.2599547    0.0519795    0.6484639    0.4916755    0.5811624
   0.0202905   -0.2599300    0.0519883    0.3009623    0.4147192    0.8587373
   0.0205210   -0.2592718    0.0517551    0.2404811   -0.3061101    0.9211219
   0.0200357   -0.2600018    0.0520668    0.1256077    0.2782110    0.9522717
   0.0200464   -0.2602447    0.0521227   -0.1623420    0.1319205    0.9778763
   0.0198892   -0.2567079    0.0549151   -0.8646081   -0.0451504    0.5004141
   0.0207244   -0.2583306    0.0520300    0.0719303   -0.4799821    0.8743244
   0.0209561   -0.2579615    0.0523323   -0.1269316   -0.6662246    0.7348695
   0.0209543   -0.2579389    0.0523577   -0.0474349   -0.9199175    0.3892322
   0.0206915   -0.2579588    0.0526275    0.2454396   -0.6830043   -0.6879422
   0.0206083   -0.2579285    0.0532193   -0.4717095   -0.2768761    0.8371558
   0.0201602   -0.2577767    0.0529790   -0.9208340   -0.0602035    0.3852795
   0.0204185   -0.2578701    0.0531278   -0.4487253   -0.4331992    0.7816547
   0.0204431   -0.2581449    0.0526586   -0.2812887   -0.2733217   -0.9198760
   0.0202911   -0.2582155    0.0527816   -0.8113268   -0.4616826   -0.3586055
   0.0206659   -0.2577534    0.0533032   -0.6471010   -0.2044982    0.7344663
   0.0206495   -0.2574407    0.0533288   -0.8165550   -0.0736015    0.5725564
   0.0206291   -0.2570413    0.0533400   -0.8136179   -0.0762970    0.5763721
   0.0207047   -0.2574973    0.0534233   -0.8323208   -0.1639598    0.5294897
   0.0209083   -0.2575732    0.0535428   -0.5462722   -0.3533536    0.7594260
   0.0211406   -0.2572283    0.0538842   -0.5609245   -0.7039601    0.4356647
   0.0208789   -0.2571411    0.0538867   -0.2037423   -0.9773139   -0.0578497
   0.0206200   -0.2571143    0.0538875    0.1598901   -0.9300290   -0.3308793
   0.0203668   -0.2572891    0.0540861    0.5183805   -0.7651306   -0.3819121
   0.0203189   -0.2573204    0.0540695    0.5153202   -0.7868629   -0.3395465
   0.0195680   -0.2609438    0.0520684    0.7953696    0.3710932    0.4792463
   0.0198330   -0.2610658    0.0520000   -0.0438904   -0.1644796    0.9854035
   0.0200635   -0.2606116    0.0521606   -0.2831427   -0.1307574    0.9501225
   0.0198381   -0.2611587    0.0519813    0.4974134    0.0300022    0.8669947
   0.0201233   -0.2616224    0.0517795    0.4383065    0.1679177    0.8830012
   0.0203810   -0.2616382    0.0517835   -0.1351272    0.1075731    0.9849714
   0.0200566   -0.2615197    0.0518240    0.5208213   -0.1088258    0.8467008
   0.0206479   -0.2619147    0.0519586   -0.0164928    0.5440386    0.8388981
   0.0206512   -0.2620717    0.0521767    0.2378439    0.5539533    0.7978509
   0.0204660   -0.2623769    0.0523182    0.2498565   -0.0631981    0.9662183
   0.0206630   -0.2623480    0.0522615    0.3290358    0.1108030    0.9377943
   0.0207056   -0.2631901    0.0522435   -0.0057805    0.2274219    0.9737792
   0.0206900   -0.2628786    0.0522228    0.1020617    0.1042504    0.9893004
   0.0201891   -0.2632643    0.0524766    0.4808539   -0.0149633    0.8766731
   0.0204557   -0.2634239    0.0524147    0.2193799    0.1276928    0.9672471
