NORM_ASCII
1288 2572
   0.0099684   -0.4123947    0.0887777   -0.9476894   -0.1101074    0.2996016
   0.0101661   -0.4121699    0.0892632   -0.8554340   -0.1145567    0.5050835
   0.0098755   -0.4118392    0.0887983   -0.9390744   -0.1748772    0.2959007
   0.0118310   -0.4133626    0.0855937    0.0288880   -0.4701209   -0.8821291
   0.0118663   -0.4129536    0.0854169    0.1218347   -0.5301442   -0.8391087
   0.0126087   -0.4124752    0.0852804    0.4966490   -0.4755854   -0.7260567
   0.0123410   -0.4128407    0.0854192    0.1765909   -0.5240037   -0.8332081
   0.0132214   -0.4114768    0.0856980    0.9277263   -0.1803553   -0.3267965
   0.0133363   -0.4110168    0.0858165    0.9764655   -0.0988753   -0.1916735
   0.0133149   -0.4113846    0.0859565    0.9972442   -0.0695586   -0.0257984
   0.0129726   -0.4119624    0.0854858    0.8294363   -0.2319601   -0.5081634
   0.0133668   -0.4109969    0.0859398    0.9747276   -0.1207359   -0.1879598
   0.0135031   -0.4100920    0.0861673    0.9854233   -0.0107636   -0.1697795
   0.0132896   -0.4106333    0.0855358    0.9468743   -0.1335390   -0.2925688
   0.0132669   -0.4102427    0.0852774    0.9370173   -0.0915727   -0.3370654
   0.0135869   -0.4106667    0.0881027    0.9992615   -0.0362050    0.0128717
   0.0135968   -0.4094030    0.0879260    0.9958546    0.0847832   -0.0329457
   0.0134704   -0.4096739    0.0861134    0.9757640    0.1440146   -0.1647557
   0.0135871   -0.4102229    0.0883298    0.9981657   -0.0112695    0.0594823
   0.0127785   -0.4124252    0.0854084    0.7115071   -0.3402008   -0.6148342
   0.0129003   -0.4104110    0.0904533    0.8277806   -0.0898226    0.5538151
   0.0133517   -0.4096627    0.0895249    0.9453491   -0.0512869    0.3220012
   0.0135938   -0.4092833    0.0887810    0.9839563    0.0281493    0.1761752
   0.0112313   -0.4110020    0.0906223   -0.3945380   -0.3929577    0.8306166
   0.0116567   -0.4110147    0.0907509   -0.1974226   -0.5157400    0.8336885
   0.0118758   -0.4106466    0.0911578   -0.0284411   -0.6058255    0.7950890
   0.0124040   -0.4110644    0.0907497    0.3545451   -0.4446063    0.8225710
   0.0122623   -0.4108477    0.0909010    0.1626571   -0.5856461    0.7940789
   0.0125249   -0.4112658    0.0905808    0.4167528   -0.3829194    0.8244331
   0.0127103   -0.4108438    0.0905786    0.6649021   -0.2177285    0.7144925
   0.0100235   -0.4113230    0.0892954   -0.8426829   -0.2210388    0.4909455
   0.0111916   -0.4108967    0.0906673   -0.3952201   -0.5497666    0.7359060
   0.0109060   -0.4106040    0.0906592   -0.5443698   -0.5353584    0.6457964
   0.0107141   -0.4105241    0.0905373   -0.6621242   -0.4841677    0.5719905
   0.0099233   -0.4099450    0.0900172   -0.7406752   -0.4379139    0.5095407
   0.0094854   -0.4109137    0.0878983   -0.9502646   -0.2893641    0.1151767
   0.0114601   -0.4126070    0.0851612   -0.2068106   -0.5355908   -0.8187624
   0.0114189   -0.4127775    0.0852840   -0.3067190   -0.5062052   -0.8060272
   0.0112444   -0.4122245    0.0849994   -0.4922795   -0.5264019   -0.6932257
   0.0094287   -0.4108179    0.0872575   -0.9479739   -0.3183466    0.0009663
   0.0095623   -0.4109106    0.0864990   -0.8763604   -0.4184388   -0.2385401
   0.0092699   -0.4103541    0.0867759   -0.9079222   -0.4162151   -0.0494196
   0.0096106   -0.4102209    0.0852688   -0.7365732   -0.6259733   -0.2561586
   0.0099310   -0.4106141    0.0852808   -0.7293271   -0.5770429   -0.3675642
   0.0101898   -0.4109710    0.0852405   -0.7829934   -0.5054118   -0.3626022
   0.0106098   -0.4114516    0.0850505   -0.6921790   -0.5207468   -0.4997109
   0.0101325   -0.4106498    0.0848582   -0.7489274   -0.6243928   -0.2219041
   0.0105023   -0.4110636    0.0846876   -0.6875353   -0.6443590   -0.3348085
   0.0112054   -0.4118427    0.0846911   -0.4936658   -0.5845719   -0.6438710
   0.0098192   -0.4114133    0.0888116   -0.8956118   -0.2732271    0.3510363
   0.0115136   -0.4124330    0.0850145   -0.2414080   -0.6011139   -0.7618295
   0.0119455   -0.4125523    0.0851602    0.1417436   -0.6211084   -0.7708003
   0.0121546   -0.4125842    0.0852382    0.1184033   -0.6464457   -0.7537166
   0.0115831   -0.4122115    0.0848254   -0.1132715   -0.6388927   -0.7609111
   0.0124315   -0.4124089    0.0851340    0.3017619   -0.6093986   -0.7331938
   0.0126889   -0.4118355    0.0849572    0.7704240   -0.3541297   -0.5301311
   0.0125042   -0.4120961    0.0849138    0.5867211   -0.5363728   -0.6066816
   0.0128744   -0.4111989    0.0848959    0.8690966   -0.2373949   -0.4339525
   0.0132530   -0.4106537    0.0854152    0.9628072   -0.1330035   -0.2351859
   0.0132321   -0.4109723    0.0855411    0.9853247   -0.0901219   -0.1449594
   0.0125903   -0.4116950    0.0846448    0.7911392   -0.3564811   -0.4970111
   0.0131916   -0.4098538    0.0850548    0.9436418    0.0782826   -0.3215773
   0.0127895   -0.4108362    0.0844976    0.8643905   -0.2024866   -0.4602481
   0.0130279   -0.4099196    0.0847184    0.8982647   -0.0392518   -0.4376984
   0.0135496   -0.4088714    0.0886869    0.9698934    0.2232601    0.0972713
   0.0134529   -0.4087518    0.0877201    0.9600452    0.2475105   -0.1305822
   0.0135321   -0.4093876    0.0872906    0.9635769    0.2385542   -0.1208775
   0.0133832   -0.4083181    0.0881863    0.9432947    0.3314401   -0.0185056
   0.0133783   -0.4092462    0.0861677    0.9408809    0.3007564   -0.1558486
   0.0132675   -0.4091168    0.0858806    0.9208352    0.3095089   -0.2372064
   0.0126768   -0.4108076    0.0906311    0.6986615   -0.2538829    0.6688913
   0.0126252   -0.4103900    0.0908217    0.7424903   -0.1145843    0.6599838
   0.0125590   -0.4106703    0.0908120    0.6499724   -0.2722180    0.7095303
   0.0127369   -0.4091043    0.0907200    0.7600683    0.0962117    0.6426815
   0.0125146   -0.4099517    0.0909646    0.6905330   -0.0398953    0.7221998
   0.0133244   -0.4091796    0.0897249    0.9262333    0.0440239    0.3743712
   0.0134092   -0.4088168    0.0891873    0.9398798    0.2124769    0.2673565
   0.0121622   -0.4106676    0.0910895    0.3203939   -0.5042538    0.8019201
   0.0120208   -0.4103927    0.0912758    0.2266246   -0.3727061    0.8998508
   0.0117514   -0.4103773    0.0913144   -0.0081715   -0.4371226    0.8993648
   0.0115635   -0.4104497    0.0912258   -0.2236677   -0.5758046    0.7863980
   0.0122930   -0.4108447    0.0908955    0.3885537   -0.4548636    0.8013271
   0.0112137   -0.4105227    0.0909810   -0.4406093   -0.6190489    0.6501091
   0.0109918   -0.4100691    0.0912677   -0.4670528   -0.5423594    0.6983609
   0.0106421   -0.4100417    0.0909945   -0.6203658   -0.5546442    0.5545414
   0.0101540   -0.4098531    0.0904780   -0.7091472   -0.5265571    0.4688794
   0.0096401   -0.4099174    0.0896217   -0.7617601   -0.4345096    0.4805444
   0.0099259   -0.4096316    0.0903834   -0.7153637   -0.5080034    0.4797784
   0.0092083   -0.4091942    0.0897673   -0.7584274   -0.4127367    0.5044168
   0.0096340   -0.4110389    0.0885708   -0.9083996   -0.3498180    0.2289926
   0.0094209   -0.4105790    0.0883833   -0.9261256   -0.3572532    0.1210849
   0.0090567   -0.4097590    0.0859412   -0.8331588   -0.5346529   -0.1413958
   0.0088352   -0.4095705    0.0869098   -0.8765016   -0.4799168   -0.0377482
   0.0089163   -0.4096528    0.0881511   -0.8729944   -0.4732790    0.1178462
   0.0097216   -0.4102477    0.0849974   -0.6585142   -0.7237774   -0.2061682
   0.0091635   -0.4097533    0.0854397   -0.7583172   -0.6262769   -0.1809205
   0.0096265   -0.4101259    0.0846841   -0.6870161   -0.7025926   -0.1853981
   0.0099949   -0.4105398    0.0850277   -0.7407362   -0.6198623   -0.2589992
   0.0111599   -0.4114723    0.0843105   -0.5480614   -0.6524797   -0.5233536
   0.0102701   -0.4106266    0.0840855   -0.7416636   -0.6212401   -0.2529741
   0.0104324   -0.4107485    0.0839363   -0.6871595   -0.6515799   -0.3213339
   0.0100401   -0.4104705    0.0844690   -0.7234791   -0.6511178   -0.2293983
   0.0097400   -0.4101720    0.0844864   -0.7016347   -0.6673798   -0.2496256
   0.0108648   -0.4111210    0.0840319   -0.5191211   -0.7603098   -0.3904385
   0.0116111   -0.4121508    0.0847567   -0.2020532   -0.7272131   -0.6559997
   0.0095883   -0.4101479    0.0893240   -0.8173118   -0.4190037    0.3955216
   0.0123194   -0.4121323    0.0848090    0.3428042   -0.6959028   -0.6310345
   0.0118635   -0.4121888    0.0847568    0.0227422   -0.7988304   -0.6011262
   0.0124348   -0.4117350    0.0844869    0.6227601   -0.4864578   -0.6128040
   0.0125155   -0.4108551    0.0840970    0.7803544   -0.2766216   -0.5608276
   0.0130910   -0.4094542    0.0849193    0.9169116    0.2026384   -0.3438179
   0.0126782   -0.4100556    0.0840341    0.8406059   -0.1374144   -0.5239265
   0.0126595   -0.4096395    0.0839552    0.8483149    0.0356930   -0.5282877
   0.0133351   -0.4084170    0.0890387    0.9179197    0.3485638    0.1895433
   0.0132642   -0.4087497    0.0866996    0.9352076    0.3058493   -0.1784460
   0.0133649   -0.4086458    0.0873970    0.9332305    0.3118475   -0.1784151
   0.0132868   -0.4081592    0.0878651    0.9245406    0.3475302   -0.1563571
   0.0132008   -0.4087393    0.0863574    0.9396516    0.3121258   -0.1401158
   0.0131358   -0.4078046    0.0885043    0.8623450    0.4871924    0.1378577
   0.0131014   -0.4077174    0.0880884    0.9080252    0.4142819   -0.0621355
   0.0131168   -0.4089195    0.0856495    0.8956930    0.3680173   -0.2495943
   0.0130240   -0.4084256    0.0861759    0.9031311    0.3670975   -0.2226961
   0.0124386   -0.4104825    0.0909836    0.5932873   -0.2380050    0.7690018
   0.0120452   -0.4092528    0.0913761    0.5639428    0.0590650    0.8236989
   0.0120135   -0.4086060    0.0912571    0.5791174    0.2167558    0.7859007
   0.0121680   -0.4082632    0.0910349    0.5923665    0.3551303    0.7231766
   0.0125048   -0.4082721    0.0907118    0.6873937    0.4055055    0.6025406
   0.0128602   -0.4086967    0.0904641    0.7999063    0.2118772    0.5614783
   0.0131019   -0.4087262    0.0900706    0.8899666    0.1557599    0.4286003
   0.0119691   -0.4099480    0.0914191    0.4496261   -0.1330757    0.8832481
   0.0120600   -0.4103904    0.0912617    0.4876776   -0.2367194    0.8403181
   0.0130462   -0.4083172    0.0899685    0.8621875    0.3407443    0.3748680
   0.0118617   -0.4099557    0.0914515    0.2458306   -0.1666105    0.9548865
   0.0116013   -0.4099809    0.0914836    0.0318788   -0.2439983    0.9692516
   0.0113716   -0.4100097    0.0914606   -0.1744783   -0.4000330    0.8997394
   0.0112896   -0.4103270    0.0912425   -0.3267628   -0.5849802    0.7423101
   0.0106911   -0.4097551    0.0912823   -0.5415062   -0.4530610    0.7081714
   0.0111631   -0.4100111    0.0913911   -0.3290825   -0.3980697    0.8562974
   0.0108479   -0.4096436    0.0914178   -0.3889425   -0.2874580    0.8752666
   0.0103373   -0.4096383    0.0909927   -0.6874072   -0.4085605    0.6004579
   0.0101573   -0.4095176    0.0908365   -0.7408206   -0.4186420    0.5252844
   0.0098615   -0.4094600    0.0904558   -0.7471489   -0.3463180    0.5673028
   0.0089725   -0.4092165    0.0892977   -0.8132101   -0.4635742    0.3518356
   0.0094707   -0.4091152    0.0901725   -0.7469468   -0.2917155    0.5974718
   0.0094329   -0.4089423    0.0901951   -0.6341163   -0.2452119    0.7333264
   0.0088607   -0.4088611    0.0894072   -0.8659099   -0.2673772    0.4227403
   0.0092401   -0.4087290    0.0900382   -0.7777067   -0.1242794    0.6162199
   0.0093501   -0.4101200    0.0888451   -0.8506051   -0.4413438    0.2858088
   0.0084889   -0.4088781    0.0865428   -0.9247082   -0.3770881   -0.0521470
   0.0086538   -0.4090035    0.0855213   -0.8991328   -0.4047563   -0.1665307
   0.0090486   -0.4096781    0.0856320   -0.8063237   -0.5807806   -0.1119645
   0.0086283   -0.4091882    0.0872784   -0.9098560   -0.4147310    0.0126626
   0.0089150   -0.4093286    0.0889780   -0.8519859   -0.4514354    0.2651907
   0.0086850   -0.4089599    0.0888468   -0.9071228   -0.3510312    0.2321753
   0.0090403   -0.4096135    0.0888243   -0.8295229   -0.5004601    0.2478537
   0.0086054   -0.4091125    0.0878330   -0.9132729   -0.4005521    0.0740983
   0.0093977   -0.4098877    0.0847645   -0.8088878   -0.5032161   -0.3040954
   0.0088873   -0.4094143    0.0854693   -0.7373282   -0.6472786   -0.1933327
   0.0089740   -0.4094366    0.0852475    0.7521356   -0.6140288   -0.2392920
   0.0090888   -0.4095099    0.0850552   -0.7195980   -0.6236765   -0.3052970
   0.0094956   -0.4099071    0.0845508   -0.7821832   -0.4634740   -0.4163908
   0.0115287   -0.4117480    0.0843427   -0.3870216   -0.7268183   -0.5674059
   0.0113418   -0.4114838    0.0841606   -0.5010780   -0.6343070   -0.5887067
   0.0115187   -0.4114756    0.0840037   -0.3670059   -0.7227511   -0.5856087
   0.0102511   -0.4103669    0.0837411   -0.7529712   -0.4524252   -0.4778554
   0.0100314   -0.4103334    0.0841503   -0.7747339   -0.4979394   -0.3896714
   0.0105633   -0.4107594    0.0837475   -0.5346403   -0.6218237   -0.5722718
   0.0104915   -0.4106041    0.0836694   -0.5889425   -0.5415697   -0.5998741
   0.0098512   -0.4101713    0.0842799   -0.7139533   -0.5681761   -0.4092024
   0.0096135   -0.4099208    0.0843522   -0.7710719   -0.4355802   -0.4644546
   0.0112673   -0.4112403    0.0837757   -0.3431169   -0.7680250   -0.5407480
   0.0107882   -0.4108328    0.0836394   -0.4768557   -0.6783095   -0.5590214
   0.0110812   -0.4109955    0.0835969   -0.3817422   -0.6683910   -0.6383779
   0.0119993   -0.4119768    0.0844469    0.1106417   -0.7577160   -0.6431368
   0.0118168   -0.4118021    0.0842812   -0.0914106   -0.7261188   -0.6814658
   0.0122562   -0.4117717    0.0843715    0.4559357   -0.5817337   -0.6735789
   0.0123526   -0.4110844    0.0840055    0.6585973   -0.3879683   -0.6447714
   0.0123948   -0.4105514    0.0837817    0.7116953   -0.2230060   -0.6661517
   0.0128544   -0.4093664    0.0844326    0.8653754    0.2502148   -0.4341866
   0.0128962   -0.4090770    0.0847140    0.8728781    0.3364535   -0.3533876
   0.0130187   -0.4088674    0.0853609    0.8991668    0.3568387   -0.2533087
   0.0123743   -0.4097226    0.0835931    0.7059031    0.0043666   -0.7082949
   0.0124320   -0.4091344    0.0837817    0.7806369    0.2238541   -0.5835199
   0.0131748   -0.4083115    0.0894836    0.8534727    0.4680411    0.2291765
   0.0130720   -0.4083767    0.0864968    0.9856669    0.1515643   -0.0740880
   0.0131330   -0.4083405    0.0868305    0.9411277    0.2940721   -0.1667341
   0.0131249   -0.4083242    0.0868217    0.9291164    0.3125371   -0.1976445
   0.0129643   -0.4079473    0.0865792    0.9337157    0.3072628   -0.1837512
   0.0130720   -0.4083767    0.0864968    0.9875369    0.1372022   -0.0771137
   0.0128725   -0.4072598    0.0879303    0.8619222    0.5013021    0.0760681
   0.0124737   -0.4068786    0.0884431    0.7366541    0.6354679    0.2313468
   0.0127478   -0.4076852    0.0896464    0.7398265    0.6109716    0.2817277
   0.0129082   -0.4074017    0.0874467    0.9122824    0.3996170   -0.0897057
   0.0124912   -0.4072398    0.0858840    0.8648511    0.4106375   -0.2888070
   0.0129233   -0.4079864    0.0863258    0.9366332    0.2666371   -0.2272067
   0.0118438   -0.4090944    0.0914896    0.3437515    0.0921964    0.9345238
   0.0118135   -0.4086798    0.0914058    0.3831715    0.2913845    0.8765128
   0.0119627   -0.4082669    0.0911689    0.4099474    0.4650053    0.7846739
   0.0121008   -0.4081081    0.0909600    0.4595464    0.5798054    0.6727873
   0.0123093   -0.4078195    0.0904952    0.5417870    0.6608910    0.5193169
   0.0127835   -0.4079134    0.0899988    0.7247804    0.5674121    0.3908157
   0.0112626   -0.4095807    0.0915449   -0.1970249   -0.0993930    0.9753472
   0.0114311   -0.4091297    0.0915661    0.0012773    0.0875517    0.9961592
   0.0106677   -0.4096806    0.0913049   -0.5739913   -0.2881164    0.7665004
   0.0105842   -0.4092546    0.0913432   -0.4627377    0.0015160    0.8864940
   0.0104137   -0.4092909    0.0912129   -0.6586908   -0.0915520    0.7468230
   0.0102558   -0.4093317    0.0910596   -0.7501859   -0.1883344    0.6338386
   0.0099743   -0.4093370    0.0906696   -0.7531513   -0.1703880    0.6353983
   0.0097928   -0.4091815    0.0905066   -0.5843648   -0.3144029    0.7481100
   0.0096134   -0.4090726    0.0903533    0.3728422   -0.3698521    0.8509983
   0.0095427   -0.4086490    0.0903685   -0.5954345   -0.0384598    0.8024828
   0.0096134   -0.4090726    0.0903533    0.9557231   -0.0597247    0.2881430
   0.0089252   -0.4083950    0.0896170   -0.8484223    0.0366869    0.5280470
   0.0086893   -0.4084845    0.0891658   -0.9204380   -0.0765765    0.3833144
   0.0093507   -0.4082700    0.0901640   -0.6631119    0.1846023    0.7253996
   0.0091965   -0.4083098    0.0900041   -0.7835312    0.1082240    0.6118549
   0.0085053   -0.4085753    0.0856362   -0.9610800   -0.1044084   -0.2557813
   0.0083635   -0.4084444    0.0866745   -0.9866085   -0.1601942   -0.0306845
   0.0084633   -0.4086381    0.0882568   -0.9608880   -0.2495440    0.1200915
   0.0088587   -0.4093537    0.0854382   -0.8468986   -0.4701399   -0.2484578
   0.0087379   -0.4090258    0.0852978   -0.8785402   -0.3250574   -0.3500069
   0.0085894   -0.4085975    0.0854125   -0.9187937   -0.1252904   -0.3743266
   0.0094279   -0.4096207    0.0844570   -0.7572051   -0.3774123   -0.5331045
   0.0091583   -0.4094784    0.0848120   -0.8337068   -0.4143658   -0.3650122
   0.0092649   -0.4094948    0.0846052   -0.7979196   -0.3595170   -0.4838097
   0.0089740   -0.4094366    0.0852475   -0.1491040   -0.8178282   -0.5558102
   0.0089740   -0.4094366    0.0852475    0.9655274   -0.2283261   -0.1249964
   0.0090644   -0.4094574    0.0850286   -0.7490329   -0.5365830   -0.3886239
   0.0095612   -0.4095119    0.0842523   -0.7348733   -0.2440689   -0.6327651
   0.0116347   -0.4116368    0.0841166   -0.2010761   -0.7357621   -0.6467013
   0.0117031   -0.4114648    0.0839425    0.0371341   -0.7066411   -0.7065971
   0.0115536   -0.4112631    0.0837078    0.0045908   -0.7117837   -0.7023837
   0.0104035   -0.4103739    0.0835681   -0.6044336   -0.3544137   -0.7134780
   0.0101880   -0.4099589    0.0836335   -0.7609320   -0.1924206   -0.6196425
   0.0098904   -0.4099418    0.0839853   -0.7449716   -0.3045786   -0.5935058
   0.0109454   -0.4107589    0.0834579   -0.4093163   -0.5212818   -0.7488160
   0.0106107   -0.4103702    0.0834352   -0.4685966   -0.4147259   -0.7800126
   0.0097470   -0.4099336    0.0841650   -0.7441143   -0.3313509   -0.5800866
   0.0113702   -0.4110688    0.0835383   -0.1460999   -0.6266782   -0.7654602
   0.0111768   -0.4106725    0.0833318   -0.1750942   -0.4611194   -0.8698913
   0.0120538   -0.4118046    0.0842986    0.2362021   -0.6351692   -0.7353698
   0.0119371   -0.4114349    0.0839582    0.2240165   -0.6224857   -0.7498854
   0.0121385   -0.4114021    0.0840326    0.4582885   -0.5117581   -0.7266878
   0.0122012   -0.4109992    0.0838057    0.5242514   -0.4339138   -0.7327204
   0.0118714   -0.4106617    0.0834122    0.4554771   -0.3665079   -0.8113030
   0.0118826   -0.4102512    0.0832785    0.5346274   -0.2142390   -0.8174810
   0.0125323   -0.4086094    0.0843660    0.8002536    0.4078318   -0.4396219
   0.0123566   -0.4088301    0.0838387    0.7606171    0.3885633   -0.5200771
   0.0124541   -0.4080008    0.0848001    0.7654600    0.4448087   -0.4649906
   0.0123784   -0.4074369    0.0852430    0.8183127    0.4517999   -0.3553044
   0.0118742   -0.4098363    0.0831810    0.4999942   -0.0420584   -0.8650069
   0.0120004   -0.4093790    0.0832787    0.5923482    0.1607556   -0.7894817
   0.0122185   -0.4088733    0.0836493    0.6161793    0.3500232   -0.7055543
   0.0130720   -0.4083767    0.0864968    0.9832514    0.1515507   -0.1012378
   0.0126648   -0.4071390    0.0864567    0.8598624    0.4498991   -0.2413038
   0.0127967   -0.4072902    0.0867102    0.9092095    0.3869766   -0.1535810
   0.0125645   -0.4067922    0.0879170    0.7012264    0.6970188    0.1498207
   0.0127139   -0.4069604    0.0876856    0.8404027    0.5419102    0.0075271
   0.0124099   -0.4068990    0.0886885    0.5148942    0.7883566    0.3367163
   0.0124503   -0.4067326    0.0881120    0.5194481    0.8307226    0.2001843
   0.0123383   -0.4067177    0.0883154    0.3953307    0.8872911    0.2375462
   0.0124491   -0.4074119    0.0896685    0.5108383    0.7480821    0.4235769
   0.0123737   -0.4071508    0.0892806    0.4954694    0.7750853    0.3921133
   0.0125496   -0.4067844    0.0870296    0.8300580    0.5486625   -0.0998657
   0.0126145   -0.4068279    0.0873774    0.8176834    0.5729590   -0.0557835
   0.0125509   -0.4071088    0.0862030    0.8296170    0.4572268   -0.3204361
   0.0124049   -0.4072989    0.0855346    0.8275929    0.4725547   -0.3029554
   0.0123096   -0.4070186    0.0857124    0.6969299    0.6404394   -0.3226857
   0.0123687   -0.4069396    0.0860380    0.6954523    0.6399304   -0.3268565
   0.0116764   -0.4086894    0.0914480    0.0796818    0.2842779    0.9554250
   0.0117121   -0.4082724    0.0912684    0.2151669    0.4806596    0.8500997
   0.0116219   -0.4077085    0.0908249    0.1639806    0.7026091    0.6924239
   0.0119092   -0.4077507    0.0907606    0.3697497    0.7237819    0.5826018
   0.0120469   -0.4075292    0.0902513    0.4051195    0.7944385    0.4524883
   0.0107633   -0.4088048    0.0913454   -0.2963189    0.2366930    0.9252954
   0.0103899   -0.4088744    0.0911431   -0.5654197    0.2254802    0.7933847
   0.0100474   -0.4085360    0.0907722   -0.6184744    0.1679015    0.7676578
   0.0097614   -0.4090325    0.0905243   -0.6891737   -0.1385880    0.7112194
   0.0096134   -0.4090726    0.0903533    0.7477308   -0.1796146    0.6392474
   0.0095229   -0.4082332    0.0902913   -0.5585273    0.2802188    0.7807206
   0.0091889   -0.4079033    0.0898554   -0.7906405    0.3221412    0.5206848
   0.0089212   -0.4079809    0.0895113   -0.7916830    0.3331989    0.5120709
   0.0087927   -0.4080255    0.0893044   -0.8491751    0.2205141    0.4798699
   0.0086677   -0.4080692    0.0890919   -0.8789080    0.2131136    0.4267356
   0.0084633   -0.4081638    0.0885834   -0.9606213    0.0291770    0.2763247
   0.0092049   -0.4078982    0.0898760   -0.7218132    0.3310893    0.6077545
   0.0095405   -0.4078265    0.0901153   -0.5135474    0.4285654    0.7433712
   0.0093775   -0.4078004    0.0899861   -0.5341328    0.5554630    0.6373092
   0.0083833   -0.4081001    0.0860563   -0.9833071   -0.0042754   -0.1819032
   0.0084575   -0.4079628    0.0858016   -0.9385148    0.0712860   -0.3377992
   0.0086163   -0.4081707    0.0853711   -0.8816944    0.0877490   -0.4635894
   0.0085625   -0.4078358    0.0855719   -0.8712282    0.1550208   -0.4657573
   0.0083343   -0.4080299    0.0865917   -0.9958763    0.0189622   -0.0887175
   0.0083296   -0.4079915    0.0868737   -0.9998511    0.0115021    0.0128615
   0.0083806   -0.4082393    0.0881157   -0.9924006   -0.0792881    0.0940984
   0.0088374   -0.4090454    0.0850852   -0.8655963   -0.2981781   -0.4022845
   0.0086921   -0.4086155    0.0852026   -0.8810592   -0.0661827   -0.4683530
   0.0094005   -0.4095061    0.0844194   -0.7255088   -0.2783144   -0.6294268
   0.0089458   -0.4090619    0.0848796   -0.8548232   -0.2422284   -0.4589147
   0.0090627   -0.4090773    0.0846802   -0.8371872   -0.2161495   -0.5023913
   0.0091958   -0.4090903    0.0844925   -0.7417750   -0.1165361   -0.6604462
   0.0095395   -0.4090960    0.0841750   -0.6377612   -0.0122810   -0.7701362
   0.0097267   -0.4095161    0.0840887   -0.7010257   -0.0941262   -0.7068969
   0.0118145   -0.4110667    0.0836276    0.3107240   -0.5620521   -0.7665168
   0.0116456   -0.4108682    0.0834293    0.1601979   -0.4797701   -0.8626455
   0.0105775   -0.4100850    0.0833683   -0.4614027   -0.2282761   -0.8573200
   0.0103426   -0.4099661    0.0834617   -0.5593685   -0.1137963   -0.8210708
   0.0100505   -0.4096904    0.0837799   -0.7296628   -0.0516231   -0.6818558
   0.0102214   -0.4095306    0.0835967   -0.6634679    0.0509951   -0.7464649
   0.0108309   -0.4103620    0.0833121   -0.3452667   -0.3045581   -0.8877135
   0.0114099   -0.4103193    0.0831678   -0.0633745   -0.3090991   -0.9489159
   0.0116878   -0.4102843    0.0831923    0.2601698   -0.2948640   -0.9194384
   0.0116812   -0.4098709    0.0830915    0.3202350   -0.1017218   -0.9418610
   0.0123520   -0.4084849    0.0842087    0.6288184    0.5588561   -0.5406174
   0.0122982   -0.4086687    0.0839024    0.7013357    0.5168690   -0.4908917
   0.0121209   -0.4086027    0.0837566    0.5353278    0.5595155   -0.6327453
   0.0122305   -0.4078782    0.0846100    0.5978594    0.5070838   -0.6208302
   0.0122281   -0.4073870    0.0850508    0.6382567    0.5492374   -0.5394132
   0.0121468   -0.4075469    0.0847892    0.4729949    0.6195056   -0.6264891
   0.0121984   -0.4073164    0.0850869    0.5051674    0.6650828   -0.5499734
   0.0122526   -0.4071402    0.0853942    0.5882475    0.6894988   -0.4225593
   0.0118211   -0.4094157    0.0831644    0.3594304    0.1548386   -0.9202363
   0.0116126   -0.4094466    0.0831028    0.1679212    0.1123336   -0.9793792
   0.0117315   -0.4090464    0.0832298    0.3251585    0.3594695   -0.8746735
   0.0116041   -0.4087168    0.0833754    0.2433452    0.5674805   -0.7866060
   0.0123652   -0.4065745    0.0868569    0.6194408    0.7747459   -0.1267358
   0.0123765   -0.4067466    0.0864267    0.7256114    0.6187062   -0.3011491
   0.0122703   -0.4066101    0.0879557    0.2359978    0.9586400    0.1591050
   0.0123820   -0.4066230    0.0877516    0.3852412    0.9158844    0.1128933
   0.0124966   -0.4066886    0.0875578    0.6394003    0.7680298    0.0360215
   0.0120834   -0.4070484    0.0893339    0.1883484    0.8961429    0.4018118
   0.0121774   -0.4068617    0.0887958    0.1919138    0.8849479    0.4243069
   0.0122279   -0.4067337    0.0885239    0.1601645    0.9242514    0.3465641
   0.0121603   -0.4066398    0.0881667    0.0260433    0.9785797    0.2042143
   0.0120520   -0.4066967    0.0883833   -0.1889492    0.9510612    0.2445012
   0.0122353   -0.4071897    0.0894716    0.3887019    0.8073897    0.4438837
   0.0120497   -0.4073546    0.0899358    0.2192252    0.8820982    0.4169449
   0.0124287   -0.4066294    0.0872055    0.6669065    0.7450845   -0.0092115
   0.0121911   -0.4068676    0.0858905    0.4020110    0.8475963   -0.3463634
   0.0121329   -0.4069661    0.0855683    0.1943200    0.8804070   -0.4325774
   0.0122485   -0.4067596    0.0862108    0.4274139    0.8102072   -0.4011005
   0.0114432   -0.4083038    0.0913184   -0.0678132    0.4975519    0.8647794
   0.0114367   -0.4084767    0.0913777   -0.1546940    0.3074309    0.9389121
   0.0113404   -0.4077905    0.0909118   -0.1069170    0.7101301    0.6959051
   0.0117266   -0.4075739    0.0905942    0.2722625    0.8288318    0.4887852
   0.0115464   -0.4074474    0.0904368    0.0171662    0.8849486    0.4653722
   0.0107983   -0.4083780    0.0911637   -0.3661242    0.4390129    0.8205003
   0.0104417   -0.4082010    0.0908631   -0.4268964    0.4567786    0.7804568
   0.0102649   -0.4080933    0.0907045   -0.4135508    0.5162906    0.7499465
   0.0095538   -0.4078254    0.0901224   -0.4294873    0.5720140    0.6988137
   0.0091328   -0.4076364    0.0894821   -0.6242853    0.6289112    0.4633990
   0.0092076   -0.4078836    0.0898670   -0.6808988    0.5356217    0.4994859
   0.0089642   -0.4077528    0.0893690   -0.7292197    0.4535446    0.5123827
   0.0088003   -0.4079625    0.0892738   -0.8084500    0.3400957    0.4803577
   0.0088442   -0.4076198    0.0890985   -0.7071629    0.4941168    0.5057363
   0.0087055   -0.4076613    0.0889102   -0.8032087    0.4068726    0.4350983
   0.0086720   -0.4076755    0.0888411   -0.9000263    0.2437176    0.3613231
   0.0083767   -0.4078195    0.0880515   -0.9813053    0.0860166    0.1721660
   0.0094754   -0.4075278    0.0897296   -0.4230000    0.8118840    0.4023871
   0.0096502   -0.4075396    0.0898661   -0.2759363    0.8395469    0.4679958
   0.0084186   -0.4076720    0.0860210   -0.9712786    0.1642322   -0.1721793
   0.0084838   -0.4076982    0.0857831   -0.9171056    0.2061239   -0.3412188
   0.0085854   -0.4077162    0.0855728   -0.8258143    0.2675889   -0.4964140
   0.0087433   -0.4081849    0.0851787   -0.8001296    0.1488499   -0.5810648
   0.0086765   -0.4078898    0.0853762   -0.7083631    0.2964846   -0.6405611
   0.0087312   -0.4077263    0.0853942   -0.6469835    0.2810290   -0.7088265
   0.0083584   -0.4076045    0.0865479   -0.9862089    0.1427529   -0.0837473
   0.0083968   -0.4076361    0.0862907   -0.9540012    0.2503847   -0.1648917
   0.0083990   -0.4076382    0.0862773   -0.9775062    0.1571808   -0.1406267
   0.0083660   -0.4077769    0.0877455   -0.9949211    0.0849796    0.0539481
   0.0083735   -0.4074809    0.0874163   -0.9838537    0.1727203    0.0469005
   0.0083559   -0.4075646    0.0868318   -0.9758254    0.2176119   -0.0202447
   0.0088064   -0.4086325    0.0850010   -0.8287444    0.0262988   -0.5590090
   0.0090722   -0.4086546    0.0846259   -0.7539854    0.0824316   -0.6516986
   0.0094370   -0.4086584    0.0843234   -0.5800504    0.2437549   -0.7772548
   0.0099420   -0.4084564    0.0840997   -0.4049220    0.4691555   -0.7848129
   0.0101218   -0.4090915    0.0837476   -0.5410188    0.2357143   -0.8073026
   0.0109006   -0.4099424    0.0831880   -0.3464009   -0.0603765   -0.9361416
   0.0105694   -0.4099159    0.0833375   -0.4439507   -0.0103483   -0.8959915
   0.0104502   -0.4095271    0.0834517   -0.4645553    0.1586366   -0.8712192
   0.0114560   -0.4099003    0.0830600   -0.0316889   -0.0604677   -0.9976670
   0.0118235   -0.4083545    0.0837831    0.3795866    0.6760130   -0.6316015
   0.0119743   -0.4075796    0.0846608    0.2698213    0.6896821   -0.6719636
   0.0119259   -0.4078741    0.0843749    0.3584734    0.6535830   -0.6665779
   0.0116525   -0.4084205    0.0836608    0.1623600    0.6429341   -0.7485152
   0.0120248   -0.4073280    0.0849551    0.2038698    0.7434309   -0.6369832
   0.0118556   -0.4074228    0.0848384    0.0042390    0.7733600   -0.6339529
   0.0119066   -0.4071847    0.0851346   -0.0949883    0.8370107   -0.5388788
   0.0120775   -0.4071169    0.0852562    0.1682152    0.8480475   -0.5025127
   0.0119611   -0.4070107    0.0854428   -0.0546042    0.8968964   -0.4388567
   0.0115683   -0.4092698    0.0831370    0.0101857    0.2527328   -0.9674825
   0.0114914   -0.4094601    0.0831053   -0.1393164    0.1781552   -0.9740902
   0.0114378   -0.4088799    0.0832710   -0.0445920    0.5149062   -0.8560859
   0.0123046   -0.4066185    0.0865248    0.4550734    0.8301684   -0.3220694
   0.0120756   -0.4064819    0.0869121   -0.1467677    0.9884307   -0.0382621
   0.0122506   -0.4065032    0.0870497    0.2587567    0.9658379    0.0142181
   0.0121880   -0.4065103    0.0867108    0.1005942    0.9767176   -0.1894823
   0.0119866   -0.4066474    0.0880341   -0.3316874    0.9297581    0.1597914
   0.0120949   -0.4065887    0.0878173   -0.0939762    0.9860660    0.1372674
   0.0122787   -0.4065811    0.0876663    0.3186097    0.9307390    0.1794791
   0.0123161   -0.4065564    0.0873998    0.3630137    0.9276909    0.0872397
   0.0120141   -0.4069175    0.0889698   -0.1131193    0.9471109    0.3003081
   0.0118010   -0.4071091    0.0894171   -0.1955272    0.9131421    0.3576880
   0.0120836   -0.4068692    0.0888281   -0.0912785    0.9130038    0.3976082
   0.0121205   -0.4068160    0.0887454   -0.0677775    0.8905274    0.4498523
   0.0119457   -0.4068042    0.0886091   -0.3239625    0.8889072    0.3238708
   0.0118798   -0.4067394    0.0882574   -0.4517987    0.8742057    0.1778829
   0.0117752   -0.4068759    0.0884884   -0.5062966    0.8331434    0.2225666
   0.0117046   -0.4072275    0.0896274   -0.0958718    0.9462104    0.3090217
   0.0114772   -0.4073167    0.0900734   -0.0527066    0.9741674    0.2195902
   0.0120739   -0.4067420    0.0860738    0.0783551    0.9376172   -0.3387247
   0.0120635   -0.4068699    0.0857930    0.1846538    0.9123177   -0.3654852
   0.0120299   -0.4068818    0.0857367    0.0880945    0.9198279   -0.3823035
   0.0118469   -0.4069530    0.0856383   -0.2517429    0.8955184   -0.3669773
   0.0119880   -0.4068863    0.0857371   -0.2235330    0.8761475   -0.4270815
   0.0119590   -0.4066728    0.0862667   -0.1246573    0.9203935   -0.3705892
   0.0121299   -0.4066029    0.0863880    0.0407134    0.9223410   -0.3842259
   0.0109734   -0.4079791    0.0909488   -0.2558999    0.5926112    0.7637586
   0.0111618   -0.4076933    0.0907603   -0.2173663    0.7734524    0.5954186
   0.0111946   -0.4073774    0.0901561   -0.1837208    0.9281711    0.3236433
   0.0108876   -0.4079249    0.0908749   -0.3319841    0.6244930    0.7069619
   0.0097481   -0.4077905    0.0902099   -0.3813001    0.6319022    0.6747665
   0.0108121   -0.4076345    0.0904787   -0.2450203    0.7795064    0.5764849
   0.0099487   -0.4077578    0.0902854   -0.3088189    0.6377287    0.7056437
   0.0098255   -0.4075650    0.0900048   -0.2651684    0.8264922    0.4965848
   0.0093546   -0.4075074    0.0894916   -0.3562504    0.8729773    0.3331609
   0.0092341   -0.4074357    0.0892386   -0.3225194    0.8607514    0.3938124
   0.0090078   -0.4075816    0.0892417   -0.5668733    0.6519983    0.5035404
   0.0088877   -0.4074705    0.0889772   -0.5742283    0.6942257    0.4339499
   0.0090603   -0.4074395    0.0891058   -0.4058738    0.7947919    0.4511898
   0.0087198   -0.4075967    0.0888666   -0.7110129    0.5583364    0.4274590
   0.0084856   -0.4076560    0.0884034   -0.9200889    0.2261790    0.3198117
   0.0086464   -0.4073784    0.0884867   -0.7573882    0.5100583    0.4076807
   0.0084113   -0.4074310    0.0877300   -0.9589772    0.2592412    0.1147033
   0.0084949   -0.4073735    0.0880775   -0.9181886    0.3429311    0.1983128
   0.0097575   -0.4074555    0.0896447   -0.1122414    0.9652981    0.2357995
   0.0099322   -0.4074711    0.0897816   -0.0599865    0.9804752    0.1872700
   0.0084940   -0.4074196    0.0860421   -0.8808202    0.4186676   -0.2210731
   0.0086029   -0.4073743    0.0858274   -0.7126843    0.5537186   -0.4306703
   0.0087159   -0.4074126    0.0856283   -0.5650182    0.5929097   -0.5737704
   0.0089103   -0.4081256    0.0850072   -0.6753720    0.3554088   -0.6461867
   0.0091657   -0.4077133    0.0851437   -0.4724251    0.4833285   -0.7370265
   0.0088320   -0.4075092    0.0854399   -0.4208475    0.5872089   -0.6914283
   0.0089512   -0.4076737    0.0852643   -0.4000708    0.4526158   -0.7969205
   0.0084404   -0.4073140    0.0865685   -0.8995920    0.4237613   -0.1056438
   0.0085462   -0.4072027    0.0863419   -0.8393758    0.5042192   -0.2030055
   0.0086140   -0.4072099    0.0861037   -0.8157458    0.5208062   -0.2516342
   0.0084510   -0.4072423    0.0874415   -0.8895760    0.4522570    0.0641727
   0.0083939   -0.4073562    0.0871225   -0.9305140    0.3657351   -0.0195337
   0.0085301   -0.4071204    0.0868052   -0.8651343    0.5001037   -0.0379327
   0.0090283   -0.4082648    0.0848265   -0.6589931    0.3111807   -0.6847589
   0.0092676   -0.4086073    0.0844773   -0.5388575    0.3633985   -0.7599830
   0.0097042   -0.4081410    0.0844541   -0.3905572    0.5544558   -0.7348767
   0.0102720   -0.4080777    0.0842981   -0.1646878    0.7173934   -0.6769229
   0.0103203   -0.4081434    0.0842269   -0.1675303    0.7305375   -0.6620034
   0.0105065   -0.4083232    0.0839314   -0.3051417    0.7422387   -0.5966325
   0.0105883   -0.4090117    0.0835115   -0.3999694    0.2686447   -0.8762731
   0.0106242   -0.4084567    0.0837500   -0.3639838    0.5106078   -0.7789707
   0.0111274   -0.4096528    0.0831452   -0.2743255    0.1619202   -0.9479069
   0.0115307   -0.4082034    0.0838271    0.1061761    0.7299359   -0.6752187
   0.0115957   -0.4080187    0.0841130    0.1592587    0.7648621   -0.6241976
   0.0118041   -0.4076573    0.0845415    0.0199423    0.7846031   -0.6196776
   0.0116876   -0.4075491    0.0847274   -0.2216199    0.7983819   -0.5598847
   0.0117389   -0.4073146    0.0850241   -0.2877938    0.7941676   -0.5352313
   0.0117922   -0.4071173    0.0853281   -0.3110071    0.8455360   -0.4339855
   0.0116260   -0.4072804    0.0852244   -0.4844053    0.7752880   -0.4053148
   0.0116797   -0.4070927    0.0855299   -0.5081873    0.7904623   -0.3419283
   0.0111519   -0.4088648    0.0833402   -0.2560117    0.3477915   -0.9019418
   0.0111937   -0.4084344    0.0836017   -0.1251160    0.6514145   -0.7483349
   0.0120158   -0.4065471    0.0865838   -0.2351157    0.9442481   -0.2304695
   0.0119664   -0.4065271    0.0871262   -0.3633064    0.9295275    0.0631431
   0.0117991   -0.4066688    0.0870182   -0.6802152    0.7326784    0.0221281
   0.0119054   -0.4065633    0.0867928   -0.4750468    0.8756800   -0.0866897
   0.0121391   -0.4065000    0.0872552   -0.1159192    0.9892466    0.0891848
   0.0117114   -0.4068578    0.0881448   -0.6664743    0.7348922    0.1254807
   0.0118160   -0.4067173    0.0879132   -0.5275068    0.8411593    0.1191117
   0.0119420   -0.4066202    0.0876535   -0.4270045    0.8968491    0.1154505
   0.0121139   -0.4065835    0.0877811   -0.0366190    0.9827336    0.1813665
   0.0122037   -0.4065356    0.0876019    0.0425837    0.9824000    0.1818704
   0.0120295   -0.4065336    0.0874674   -0.3017381    0.9454846    0.1225272
   0.0118828   -0.4069018    0.0887524   -0.3528383    0.8892098    0.2912233
   0.0115218   -0.4072377    0.0895128   -0.3032795    0.9344105    0.1868117
   0.0115631   -0.4070908    0.0889396   -0.5407024    0.8287096    0.1445037
   0.0113036   -0.4073301    0.0899414   -0.2060919    0.9764374    0.0640011
   0.0117908   -0.4067930    0.0861547   -0.5022778    0.8241466   -0.2617239
   0.0119021   -0.4067924    0.0859489   -0.1973748    0.9106351   -0.3630247
   0.0117349   -0.4069359    0.0858412   -0.4694208    0.8382319   -0.2775093
   0.0118121   -0.4068849    0.0858929   -0.4755577    0.8110420   -0.3406696
   0.0118471   -0.4066596    0.0864706   -0.4683761    0.8571821   -0.2141556
   0.0107397   -0.4074690    0.0901111   -0.1401945    0.9668107    0.2135944
   0.0100016   -0.4076039    0.0901457   -0.2448720    0.7914513    0.5600380
   0.0101785   -0.4076603    0.0902903   -0.2178381    0.7835130    0.5819398
   0.0104573   -0.4075316    0.0901945   -0.1415918    0.9169083    0.3731365
   0.0101070   -0.4074868    0.0899181   -0.1152677    0.9354824    0.3340449
   0.0095158   -0.4073594    0.0891528    0.0058575    0.9794758    0.2014766
   0.0093406   -0.4073361    0.0890146   -0.0733055    0.9618329    0.2636356
   0.0089902   -0.4072911    0.0887386   -0.2584545    0.8846823    0.3879929
   0.0091651   -0.4073067    0.0888755   -0.1527490    0.9371217    0.3138004
   0.0088167   -0.4073008    0.0886066   -0.5115493    0.7308609    0.4518403
   0.0085404   -0.4073481    0.0882182   -0.8008486    0.5001092    0.3294424
   0.0086729   -0.4073062    0.0884172   -0.5815272    0.7065931    0.4031777
   0.0085118   -0.4071963    0.0877728   -0.7858388    0.6003850    0.1483080
   0.0085764   -0.4072339    0.0881197   -0.7140660    0.6459603    0.2698982
   0.0098028   -0.4073940    0.0890875    0.1157494    0.9927313    0.0329643
   0.0103911   -0.4074591    0.0898414   -0.0438659    0.9923654    0.1152676
   0.0104400   -0.4074695    0.0892972   -0.0359878    0.9993216    0.0078233
   0.0087190   -0.4072281    0.0858954   -0.6293850    0.6263359   -0.4599759
   0.0088820   -0.4072438    0.0857319   -0.2751035    0.8220900   -0.4984837
   0.0089982   -0.4073461    0.0855445   -0.1450341    0.7959263   -0.5877639
   0.0091855   -0.4079172    0.0848970   -0.4713837    0.5849806   -0.6599963
   0.0093518   -0.4077522    0.0850010   -0.1893810    0.7857756   -0.5888052
   0.0092343   -0.4076267    0.0851837   -0.1440187    0.7317414   -0.6661930
   0.0091160   -0.4074795    0.0853627   -0.1458802    0.7214376   -0.6769393
   0.0085645   -0.4071793    0.0863532   -0.7820888    0.5972195   -0.1779492
   0.0086007   -0.4070307    0.0866509   -0.6727361    0.7310768   -0.1138104
   0.0086543   -0.4071362    0.0861237   -0.6575860    0.6736740   -0.3372595
   0.0086154   -0.4070404    0.0875387   -0.6066928    0.7847075    0.1271139
   0.0085540   -0.4070688    0.0872035   -0.7235646    0.6894999    0.0323136
   0.0086596   -0.4069535    0.0869763   -0.5305650    0.8471719    0.0282945
   0.0093037   -0.4080603    0.0847168   -0.4470149    0.4949406   -0.7451251
   0.0095856   -0.4079860    0.0846316   -0.2981828    0.6453830   -0.7032552
   0.0098699   -0.4079682    0.0845560   -0.1378088    0.8162442   -0.5610296
   0.0104419   -0.4079924    0.0844167   -0.0531462    0.8877762   -0.4571968
   0.0107896   -0.4082762    0.0838510   -0.2208689    0.7428028   -0.6320292
   0.0112959   -0.4079502    0.0841931   -0.1189242    0.8264795   -0.5502623
   0.0112383   -0.4077630    0.0847045   -0.3478769    0.8831156   -0.3147832
   0.0115189   -0.4076636    0.0846143   -0.2743645    0.8477214   -0.4539741
   0.0114590   -0.4071306    0.0859488   -0.6644082    0.7173348   -0.2097440
   0.0117396   -0.4067341    0.0866904   -0.6752516    0.7312260   -0.0966635
   0.0118604   -0.4066343    0.0873517   -0.5813173    0.8068662    0.1050575
   0.0114087   -0.4070913    0.0864875   -0.6843995    0.7262887   -0.0640480
   0.0118371   -0.4066683    0.0874042   -0.6620027    0.7435226    0.0944802
   0.0112557   -0.4072271    0.0872648   -0.5937976    0.8037025    0.0382966
   0.0116337   -0.4069891    0.0883254   -0.6623351    0.7460484    0.0687316
   0.0116485   -0.4068550    0.0878041   -0.6909256    0.7180198    0.0840791
   0.0111951   -0.4073398    0.0892325   -0.3719776    0.9257141    0.0684556
   0.0108966   -0.4074108    0.0893486   -0.1754278    0.9840369   -0.0299407
   0.0116245   -0.4069522    0.0860504   -0.6135179    0.7660476   -0.1917468
   0.0096262   -0.4073434    0.0889441    0.2151453    0.9743953    0.0653167
   0.0094500   -0.4072986    0.0888017    0.1027296    0.9830945    0.1515649
   0.0090967   -0.4071915    0.0885139    0.0405164    0.9133813    0.4050839
   0.0088396   -0.4072670    0.0885548   -0.3436524    0.8459473    0.4077697
   0.0092741   -0.4072576    0.0886604    0.0620550    0.9823710    0.1763417
   0.0091583   -0.4072299    0.0885673    0.1782557    0.9340465    0.3094868
   0.0087453   -0.4071271    0.0882347   -0.4797592    0.8070250    0.3442990
   0.0089188   -0.4071175    0.0883665   -0.1719829    0.8939489    0.4138565
   0.0086789   -0.4070527    0.0878809   -0.4478818    0.8786119    0.1656594
   0.0087871   -0.4069880    0.0876629   -0.1984108    0.9739908    0.1094306
   0.0088515   -0.4070217    0.0880092   -0.1924795    0.9589283    0.2083461
   0.0106628   -0.4074741    0.0888861   -0.1539297    0.9880674    0.0053394
   0.0104271   -0.4075005    0.0884167   -0.1111239    0.9930640   -0.0384106
   0.0099672   -0.4074892    0.0883525    0.2147413    0.9762296   -0.0293591
   0.0088516   -0.4072284    0.0857839   -0.2852405    0.7958987   -0.5340254
   0.0087662   -0.4071511    0.0859205   -0.4237090    0.7322125   -0.5332312
   0.0089362   -0.4072215    0.0857700   -0.0984296    0.8472173   -0.5220483
   0.0091691   -0.4072802    0.0856661    0.1589526    0.8698224   -0.4670578
   0.0092864   -0.4074039    0.0854831    0.1681091    0.8403657   -0.5152911
   0.0094682   -0.4078643    0.0848153   -0.2341698    0.7357492   -0.6354821
   0.0096379   -0.4077691    0.0849316   -0.0125092    0.8946625   -0.4465676
   0.0095143   -0.4076767    0.0851350    0.1337377    0.8724412   -0.4700644
   0.0087092   -0.4069757    0.0864345   -0.4719978    0.8652039   -0.1692345
   0.0087691   -0.4069161    0.0867637   -0.1434280    0.9875044   -0.0652956
   0.0088804   -0.4069174    0.0865578   -0.0915919    0.9934524   -0.0682876
   0.0088207   -0.4069770    0.0862289   -0.1782802    0.9472431   -0.2663583
   0.0089338   -0.4070211    0.0860308   -0.1271082    0.9082787   -0.3985891
   0.0086571   -0.4070134    0.0874542   -0.4026593    0.9088901    0.1085554
   0.0085733   -0.4070570    0.0872167   -0.6078378    0.7890970    0.0886511
   0.0087219   -0.4069408    0.0873143   -0.2503143    0.9624771    0.1047880
   0.0089431   -0.4069162    0.0868976    0.2053881    0.9781543    0.0320934
   0.0102124   -0.4078498    0.0848024    0.0339278    0.9570726   -0.2878558
   0.0106726   -0.4078612    0.0848667   -0.0781805    0.9721674   -0.2208584
   0.0110710   -0.4076057    0.0854277   -0.4517885    0.8683233   -0.2046991
   0.0107319   -0.4077899    0.0851934   -0.1187019    0.9698861   -0.2126755
   0.0112601   -0.4073697    0.0859265   -0.6139835    0.7803465   -0.1186744
   0.0109767   -0.4073616    0.0873614   -0.4472312    0.8932971   -0.0447727
   0.0109293   -0.4073803    0.0879105   -0.3478872    0.9374690   -0.0112379
   0.0111622   -0.4072996    0.0883699   -0.3903256    0.9203777    0.0234682
   0.0112244   -0.4072809    0.0887066   -0.4303109    0.9010434    0.0543446
   0.0093855   -0.4072648    0.0884555    0.3054407    0.9487380    0.0812543
   0.0094988   -0.4073050    0.0882567    0.3586222    0.9334820    0.0012483
   0.0092056   -0.4071424    0.0882992    0.3656909    0.9037458    0.2225169
   0.0090269   -0.4070490    0.0881482    0.1494680    0.9655401    0.2130530
   0.0089612   -0.4069901    0.0877974    0.1084510    0.9904389    0.0852592
   0.0088405   -0.4069776    0.0875613   -0.0142458    0.9856082    0.1684447
   0.0090734   -0.4070108    0.0875949    0.3160631    0.9483551    0.0269587
   0.0089404   -0.4069777    0.0874877    0.3723219    0.9090694    0.1870004
   0.0091385   -0.4070543    0.0879430    0.3431062    0.9323548    0.1139851
   0.0105739   -0.4075297    0.0867841   -0.1447494    0.9860357   -0.0823476
   0.0095973   -0.4073375    0.0871708    0.4443109    0.8958388   -0.0077838
   0.0101139   -0.4075204    0.0867203    0.1922175    0.9777935   -0.0835002
   0.0090511   -0.4071429    0.0858474    0.1132079    0.8476188   -0.5183882
   0.0094606   -0.4074059    0.0856175    0.3895926    0.8561993   -0.3393235
   0.0091538   -0.4071733    0.0859310    0.3790127    0.8456461   -0.3758084
   0.0095782   -0.4075394    0.0854355    0.3542786    0.8830053   -0.3078772
   0.0103327   -0.4077386    0.0854624    0.1397199    0.9668332   -0.2138034
   0.0089935   -0.4069519    0.0863585    0.2329418    0.9645331   -0.1241534
   0.0090573   -0.4069719    0.0867020    0.4246047    0.9053625   -0.0054396
   0.0091087   -0.4070328    0.0861668    0.3987154    0.8889171   -0.2255050
   0.0088964   -0.4069486    0.0874494    0.0752814    0.9792679    0.1880615
   0.0090091   -0.4069791    0.0872493    0.4649279    0.8793955    0.1024973
   0.0090942   -0.4070246    0.0870300    0.5772360    0.8151067    0.0489868
   0.0105064   -0.4077291    0.0855947   -0.0373257    0.9821126   -0.1845577
   0.0107383   -0.4076288    0.0860499   -0.2542766    0.9529953   -0.1647523
   0.0109669   -0.4074528    0.0864919   -0.3714816    0.9200372   -0.1246314
   0.0093893   -0.4072605    0.0881662    0.5328168    0.8445237    0.0537216
   0.0093194   -0.4071962    0.0881028    0.5475757    0.8294293    0.1104891
   0.0092523   -0.4071080    0.0877467    0.5216255    0.8518633    0.0472836
