NORM_ASCII
1133 2262
   0.0113652   -0.3804820    0.0835250    0.8340687    0.5214861    0.1799489
   0.0115408   -0.3806024    0.0828423    0.8982509    0.4386003    0.0278422
   0.0113095   -0.3802214    0.0829438    0.7867103    0.6087887    0.1022900
   0.0077510   -0.3914717    0.0877204   -0.5331460    0.0037197    0.8460151
   0.0080021   -0.3903867    0.0878325   -0.4553696   -0.0192491    0.8900944
   0.0075716   -0.3878385    0.0877392   -0.4359759   -0.0807963    0.8963242
   0.0079104   -0.3874445    0.0879240   -0.3313409   -0.0568305    0.9417980
   0.0080457   -0.3836672    0.0882458   -0.2111461   -0.0099550    0.9774038
   0.0089251   -0.3824605    0.0882581    0.0825828    0.1058374    0.9909483
   0.0090969   -0.3819178    0.0881344    0.1694352    0.2401690    0.9558298
   0.0094092   -0.3816755    0.0879781    0.2365084    0.2619442    0.9356543
   0.0076896   -0.3827175    0.0880997   -0.3952737    0.1273758    0.9096890
   0.0078810   -0.3821672    0.0880457   -0.3122299    0.2824226    0.9070557
   0.0088208   -0.3819718    0.0881717   -0.0840181    0.2591388    0.9621788
   0.0080762   -0.3848729    0.0881428   -0.2191966   -0.0965366    0.9708932
   0.0076252   -0.3858272    0.0879212   -0.3852430   -0.1082311    0.9164463
   0.0074991   -0.3863720    0.0878302   -0.4837074   -0.0415477    0.8742431
   0.0073775   -0.3869143    0.0877671   -0.5457614   -0.0571640    0.8359885
   0.0105597   -0.3806716    0.0867649    0.7485054    0.4428125    0.4936160
   0.0105184   -0.3800255    0.0856381    0.4402499    0.8703326    0.2206836
   0.0103098   -0.3797573    0.0841648    0.3643479    0.9049374    0.2198613
   0.0098793   -0.3797302    0.0844307    0.1217020    0.9774408    0.1726215
   0.0106141   -0.3795878    0.0827457    0.5699640    0.8084062    0.1470390
   0.0097101   -0.3795404    0.0837837   -0.1284661    0.9285981    0.3481408
   0.0102805   -0.3793754    0.0827947    0.4970518    0.8537667    0.1549898
   0.0100399   -0.3793325    0.0831765    0.3872318    0.8604581    0.3311547
   0.0107407   -0.3796629    0.0825620    0.6571334    0.7535133    0.0198351
   0.0100359   -0.3798070    0.0850630    0.1798462    0.9754896    0.1267889
   0.0104762   -0.3802078    0.0861547    0.5475447    0.7779074    0.3083098
   0.0107198   -0.3804988    0.0863213    0.6549512    0.6431083    0.3968006
   0.0102648   -0.3806431    0.0871141    0.6181432    0.5433413    0.5680486
   0.0101687   -0.3808344    0.0873318    0.5915121    0.4251812    0.6850798
   0.0099407   -0.3807577    0.0874533    0.4460925    0.4662095    0.7639700
   0.0088156   -0.3814670    0.0880215   -0.0089874    0.3634528    0.9315693
   0.0091431   -0.3810227    0.0877769   -0.0398776    0.5501737    0.8340975
   0.0094371   -0.3808844    0.0876833    0.0959119    0.5315711    0.8415658
   0.0093670   -0.3967652    0.0884605    0.3549983    0.2621628    0.8973555
   0.0084529   -0.3954170    0.0882402   -0.1515133    0.1051619    0.9828452
   0.0087910   -0.3943230    0.0882064   -0.0602360    0.0617062    0.9962751
   0.0090745   -0.3968199    0.0885256   -0.0182188    0.2008792    0.9794466
   0.0109071   -0.3991993    0.0853980    0.9929412    0.1049001   -0.0553513
   0.0110087   -0.3996457    0.0862372    0.9859551    0.1665440   -0.0124787
   0.0104649   -0.3986420    0.0877496    0.9080870    0.2806232    0.3108516
   0.0107590   -0.3991142    0.0874259    0.9255658    0.2910947    0.2420576
   0.0108450   -0.3991238    0.0869475    0.9707568    0.2036792    0.1270673
   0.0107876   -0.3982008    0.0852804    0.9906491    0.1059850   -0.0859157
   0.0099951   -0.3986769    0.0887932    0.5967997    0.2737775    0.7542387
   0.0103728   -0.3991357    0.0884197    0.8593559    0.3232586    0.3962466
   0.0106514   -0.3977647    0.0843559    0.9622885    0.0961780   -0.2544614
   0.0095979   -0.3945224    0.0817509    0.6104193   -0.3373506   -0.7166470
   0.0096599   -0.3929997    0.0811702    0.4815690   -0.2753755   -0.8320214
   0.0100836   -0.3984909    0.0826326    0.7568990    0.1300416   -0.6404632
   0.0103982   -0.3999743    0.0825820    0.8318597    0.1947768   -0.5196839
   0.0105773   -0.3988525    0.0835757    0.9504907    0.1332524   -0.2807333
   0.0096977   -0.3970394    0.0823776    0.6428424   -0.0444761   -0.7647062
   0.0097500   -0.3975389    0.0824490    0.5541181   -0.0010198   -0.8324374
   0.0094636   -0.3965831    0.0821858    0.5384609   -0.1067025   -0.8358675
   0.0091925   -0.3951190    0.0817384    0.3529293   -0.2426758   -0.9036312
   0.0107829   -0.3998293    0.0837586    0.9645560    0.1872707   -0.1859070
   0.0082327   -0.3934185    0.0879741   -0.3329988    0.0552422    0.9413076
   0.0103303   -0.3862704    0.0795017    0.8210802   -0.1754563   -0.5431781
   0.0102637   -0.3883129    0.0800047    0.8387088   -0.1709534   -0.5170518
   0.0104035   -0.3857461    0.0794012    0.8292119   -0.1919196   -0.5249518
   0.0103370   -0.3852571    0.0791814    0.6980683   -0.1967377   -0.6884729
   0.0102227   -0.3842169    0.0787846    0.6367244   -0.2158453   -0.7402654
   0.0111284   -0.3819866    0.0796260    0.9458463   -0.0437583   -0.3216521
   0.0109316   -0.3825600    0.0792641    0.8870183   -0.1615982   -0.4325327
   0.0106616   -0.3830156    0.0789847    0.8640562   -0.1945491   -0.4642817
   0.0103729   -0.3828119    0.0785292    0.7319747   -0.1743007   -0.6586595
   0.0105249   -0.3826763    0.0786698    0.7832002   -0.1377016   -0.6063296
   0.0112380   -0.3814122    0.0803094    0.9527448    0.2304705   -0.1978904
   0.0111368   -0.3803021    0.0812470    0.7936567    0.5242458   -0.3086670
   0.0109563   -0.3806651    0.0803589    0.8161739    0.4784612   -0.3239368
   0.0109629   -0.3815229    0.0793193    0.8883473    0.2044953   -0.4111214
   0.0096909   -0.3899632    0.0801652    0.3289852   -0.3468012   -0.8783494
   0.0091103   -0.3915956    0.0806573    0.1430299   -0.3125172   -0.9390822
   0.0096518   -0.3919894    0.0808661    0.3319719   -0.2633263   -0.9057891
   0.0097036   -0.3894554    0.0799850    0.3816550   -0.2890560   -0.8779442
   0.0101056   -0.3888596    0.0800032    0.5650576   -0.2850568   -0.7742432
   0.0106497   -0.3797751    0.0814487    0.5901927    0.7742690   -0.2284294
   0.0067658   -0.3896510    0.0870352   -0.6898552   -0.0204810    0.7236576
   0.0077403   -0.3945539    0.0878412   -0.5199044    0.0402867    0.8532739
   0.0066732   -0.3901911    0.0869238   -0.7272305   -0.0488683    0.6846515
   0.0065993   -0.3907280    0.0867813   -0.7881601   -0.0530775    0.6131773
   0.0067765   -0.3922245    0.0869606   -0.7215745   -0.0070463    0.6923010
   0.0068396   -0.3927247    0.0870139   -0.7373682   -0.0026837    0.6754857
   0.0067191   -0.3917266    0.0868984   -0.7240254   -0.0016468    0.6897713
   0.0073776   -0.3878180    0.0876187   -0.5813267   -0.0869310    0.8090131
   0.0076669   -0.3839974    0.0881067   -0.3201633   -0.0409462    0.9464771
   0.0073625   -0.3833059    0.0879563   -0.5399623    0.0252862    0.8413093
   0.0070968   -0.3818421    0.0874996   -0.4934281    0.2407610    0.8358007
   0.0079043   -0.3816603    0.0878476   -0.3179564    0.3778805    0.8695459
   0.0075933   -0.3847973    0.0880460   -0.3846481   -0.0792120    0.9196582
   0.0071506   -0.3843879    0.0877787   -0.6366740   -0.0614413    0.7686815
   0.0073229   -0.3843453    0.0879153    0.2057675   -0.0872106    0.9747072
   0.0062374   -0.3845338    0.0867278   -0.7646019   -0.1035191    0.6361349
   0.0066184   -0.3860799    0.0870208   -0.7260345   -0.0307483    0.6869705
   0.0069778   -0.3875350    0.0873202   -0.7279231   -0.0527128    0.6836295
   0.0066902   -0.3865776    0.0870589   -0.7727631   -0.0693559    0.6308938
   0.0097052   -0.3798786    0.0856287   -0.0669830    0.9870370    0.1458469
   0.0099669   -0.3799732    0.0860941    0.2017699    0.9361969    0.2877922
   0.0095801   -0.3798226    0.0845180   -0.4138737    0.9007846    0.1315129
   0.0097257   -0.3798015    0.0851383   -0.2030684    0.9738490    0.1018886
   0.0103237   -0.3793689    0.0822891    0.5229306    0.8478748   -0.0874749
   0.0093143   -0.3800161    0.0845829   -0.5341378    0.8377272    0.1136223
   0.0092381   -0.3794141    0.0832206   -0.4706910    0.7878947    0.3970793
   0.0091349   -0.3799299    0.0839849   -0.4762150    0.7975638    0.3702853
   0.0091130   -0.3801241    0.0845145   -0.4970152    0.8536855    0.1555534
   0.0098338   -0.3792047    0.0830423    0.1928844    0.9466795    0.2580574
   0.0095271   -0.3792318    0.0831216   -0.2442831    0.9195572    0.3077993
   0.0098692   -0.3791312    0.0825279    0.2616259    0.9650479   -0.0153152
   0.0102298   -0.3802357    0.0865371    0.3697416    0.8431448    0.3903819
   0.0099268   -0.3803943    0.0871577    0.3521514    0.7417321    0.5708089
   0.0098271   -0.3805530    0.0873718    0.2925279    0.5916049    0.7512863
   0.0083676   -0.3813360    0.0878506   -0.2139371    0.5685722    0.7943277
   0.0088277   -0.3805834    0.0872917   -0.1814437    0.7347625    0.6536071
   0.0095171   -0.3805515    0.0874474    0.0163247    0.7427902    0.6693252
   0.0093972   -0.3977732    0.0887277    0.0556839    0.2161979    0.9747604
   0.0083527   -0.3964636    0.0883003   -0.4606009    0.0594997    0.8856108
   0.0089111   -0.3978725    0.0886917   -0.3980637    0.0904734    0.9128855
   0.0110990   -0.4001424    0.0862444    0.9813045    0.1883841   -0.0394069
   0.0109583   -0.3996096    0.0870453    0.9679726    0.2428776    0.0635573
   0.0110508   -0.4001951    0.0854751    0.9649311    0.2538614   -0.0668013
   0.0111900   -0.4005521    0.0877740    0.9113023    0.3649546    0.1906207
   0.0100707   -0.3991695    0.0889262    0.5659283    0.3596181    0.7418895
   0.0097425   -0.3992284    0.0890510   -0.0595627    0.2384543    0.9693255
   0.0105038   -0.3996136    0.0886277    0.8270189    0.3832638    0.4112768
   0.0087672   -0.3941940    0.0813956    0.0522828   -0.3198235   -0.9460335
   0.0094492   -0.3940559    0.0814157    0.2485624   -0.3800258   -0.8909529
   0.0091824   -0.3920862    0.0808024    0.0816788   -0.2701553   -0.9593460
   0.0092223   -0.3935995    0.0812122    0.1025322   -0.2883972   -0.9520054
   0.0100147   -0.3990284    0.0824819    0.3428200    0.0648312   -0.9371613
   0.0107215   -0.4004026    0.0829560    0.8837384    0.2625058   -0.3874237
   0.0103536   -0.4005069    0.0823904    0.4712668    0.1680198   -0.8658389
   0.0094180   -0.3971042    0.0822299    0.3767272   -0.1081610   -0.9199879
   0.0092112   -0.3981749    0.0822349    0.1291613   -0.0512271   -0.9902995
   0.0091448   -0.3976756    0.0821872    0.1189772   -0.1284119   -0.9845582
   0.0089819   -0.3958822    0.0818914    0.1946103   -0.1830485   -0.9636494
   0.0087149   -0.3957242    0.0818471   -0.1511480   -0.2343266   -0.9603360
   0.0110829   -0.4006088    0.0842540    0.9310442    0.3346271   -0.1455381
   0.0108705   -0.4003322    0.0836507    0.9243393    0.3145862   -0.2159453
   0.0096780   -0.3859186    0.0789157    0.4723406   -0.2266498   -0.8517771
   0.0099311   -0.3878901    0.0795526    0.4410885   -0.2479568   -0.8625302
   0.0100616   -0.3848198    0.0788059    0.5140299   -0.2384943   -0.8239501
   0.0096560   -0.3854166    0.0787939    0.3924107   -0.2689110   -0.8796026
   0.0092054   -0.3834906    0.0780633    0.2666952   -0.1587069   -0.9506239
   0.0098458   -0.3833499    0.0782657    0.4036741   -0.2112675   -0.8901760
   0.0090116   -0.3840396    0.0781215    0.2716181   -0.2589616   -0.9269102
   0.0102107   -0.3827567    0.0783458    0.5806358   -0.1440688   -0.8013153
   0.0107898   -0.3820936    0.0789178    0.8383065   -0.0095547   -0.5451155
   0.0103411   -0.3822138    0.0783939    0.6635955    0.0079083   -0.7480498
   0.0109929   -0.3812516    0.0796176    0.8889371    0.3346522   -0.3127278
   0.0108854   -0.3806928    0.0800512    0.7912953    0.5316976   -0.3019098
   0.0108616   -0.3802174    0.0808068    0.6607781    0.6577774   -0.3615260
   0.0105972   -0.3802303    0.0803795    0.5588312    0.7216017   -0.4086547
   0.0108026   -0.3803486    0.0805123    0.6445800    0.6385667   -0.4204155
   0.0106768   -0.3814590    0.0789039    0.7788201    0.2633707   -0.5692760
   0.0105723   -0.3816366    0.0786980    0.7368184    0.1591457   -0.6570930
   0.0107599   -0.3808901    0.0794537    0.7576855    0.5492246   -0.3525124
   0.0107072   -0.3810690    0.0791637    0.7781922    0.3965763   -0.4869744
   0.0092157   -0.3900614    0.0801109   -0.0280121   -0.3254535   -0.9451430
   0.0086312   -0.3911833    0.0805574   -0.2500570   -0.2870048   -0.9247160
   0.0094890   -0.3879851    0.0794428    0.1679730   -0.2809973   -0.9448945
   0.0088489   -0.3891225    0.0798213   -0.1567262   -0.3157180   -0.9358200
   0.0101870   -0.3794665    0.0816786    0.4199759    0.8472734   -0.3251893
   0.0105200   -0.3799359    0.0808466    0.4725040    0.8024497   -0.3644372
   0.0064165   -0.3866546    0.0866670   -0.6778024   -0.0350275    0.7344092
   0.0063309   -0.3897693    0.0864880   -0.8525505   -0.0469127    0.5205352
   0.0061018   -0.3877713    0.0862366   -0.8463223   -0.0274862    0.5319616
   0.0071888   -0.3957194    0.0873817   -0.7329705   -0.0260416    0.6797618
   0.0060440   -0.3893418    0.0859595   -0.9393722   -0.0409472    0.3404457
   0.0064201   -0.3928408    0.0864413   -0.8681757   -0.0504607    0.4936847
   0.0066491   -0.3938079    0.0867208   -0.8911981   -0.0671937    0.4486100
   0.0067771   -0.3948008    0.0869036   -0.8824587   -0.0252421    0.4697121
   0.0075121   -0.3843237    0.0880305   -0.1746991   -0.0989775    0.9796345
   0.0075070   -0.3843014    0.0880317   -0.4690825   -0.0536771    0.8815216
   0.0072603   -0.3838468    0.0878613   -0.4253153   -0.0032138    0.9050395
   0.0072152   -0.3838577    0.0878210   -0.6330078   -0.0064585    0.7741185
   0.0070876   -0.3838894    0.0877252   -0.5446651   -0.0592357    0.8365591
   0.0064170   -0.3830203    0.0872556   -0.6519795    0.0444162    0.7569346
   0.0069074   -0.3813376    0.0872196   -0.4063278    0.2991947    0.8633541
   0.0062958   -0.3810116    0.0868235   -0.5194326    0.2935799    0.8024965
   0.0077666   -0.3811097    0.0874681   -0.2465225    0.5720178    0.7823185
   0.0071497   -0.3807435    0.0870682   -0.2253508    0.5891620    0.7759543
   0.0073229   -0.3843453    0.0879153    0.7558799   -0.0524172    0.6526086
   0.0073229   -0.3843453    0.0879153    0.7463678    0.0078188    0.6654878
   0.0064729   -0.3861206    0.0868390   -0.8150419   -0.0907504    0.5722509
   0.0062651   -0.3856610    0.0866033   -0.7468141   -0.1256109    0.6530625
   0.0061265   -0.3857000    0.0864103   -0.7323336   -0.1023121    0.6732160
   0.0055933   -0.3842878    0.0859764   -0.8200130   -0.1336129    0.5565305
   0.0062140   -0.3856755    0.0865136   -0.8073708   -0.0921184    0.5828092
   0.0055080   -0.3837911    0.0859705   -0.8054571   -0.1381758    0.5763214
   0.0063309   -0.3835605    0.0871336   -0.7366549   -0.1206559    0.6654184
   0.0064618   -0.3866437    0.0867219   -0.8055564   -0.0730955    0.5879932
   0.0091307   -0.3801379    0.0866538   -0.0749242    0.9430466    0.3241134
   0.0093219   -0.3800123    0.0854347   -0.4563316    0.8897981   -0.0045592
   0.0090509   -0.3800870    0.0863364   -0.2246820    0.9581994    0.1771213
   0.0100521   -0.3793166    0.0818530    0.1816250    0.9335947   -0.3088906
   0.0087144   -0.3801749    0.0838871   -0.4681615    0.8361124    0.2859035
   0.0091571   -0.3793518    0.0829011   -0.5881544    0.8013073    0.1094580
   0.0086374   -0.3803530    0.0845018   -0.2864451    0.9322198    0.2211682
   0.0087169   -0.3803999    0.0848193   -0.3631787    0.9282260    0.0806085
   0.0088529   -0.3802966    0.0854286   -0.4608234    0.8831201   -0.0879812
   0.0095602   -0.3791353    0.0826042   -0.1994862    0.9790351   -0.0411768
   0.0096995   -0.3803120    0.0870732    0.0846566    0.9026540    0.4219586
   0.0083376   -0.3806837    0.0872621   -0.0427292    0.8429974    0.5362178
   0.0080452   -0.3808374    0.0873576   -0.2185038    0.6518788    0.7261612
   0.0094179   -0.3803281    0.0871073   -0.1135306    0.8558075    0.5046824
   0.0084127   -0.3805696    0.0871029   -0.1730226    0.8425308    0.5101030
   0.0092598   -0.3989431    0.0888887   -0.2726097    0.0815532    0.9586621
   0.0074805   -0.3966754    0.0876359   -0.6897504   -0.0228067    0.7236880
   0.0088280   -0.3989163    0.0887237   -0.4968588    0.0638141    0.8654820
   0.0080617   -0.3985881    0.0881479   -0.6229349    0.0411827    0.7811889
   0.0077749   -0.3976308    0.0878857   -0.6729763    0.0054317    0.7396441
   0.0113276   -0.4011044    0.0866045    0.9599046    0.2723193   -0.0665234
   0.0111579   -0.4006640    0.0858990    0.9717052    0.2341905   -0.0307231
   0.0113663   -0.4012160    0.0844634    0.9365992    0.3483348   -0.0380115
   0.0106011   -0.4005863    0.0892760    0.6498335    0.4661308    0.6003653
   0.0111200   -0.4010204    0.0888225    0.8136112    0.4696598    0.3427192
   0.0113093   -0.4008964    0.0878672    0.9170442    0.3526859    0.1861251
   0.0115715   -0.4015172    0.0875325    0.9390520    0.3437746    0.0006890
   0.0112259   -0.4010265    0.0883557    0.8997188    0.3861887    0.2033824
   0.0100334   -0.4001847    0.0893063    0.0331084    0.3407553    0.9395689
   0.0089332   -0.4014319    0.0893415   -0.4611329    0.2509248    0.8511129
   0.0084113   -0.4005485    0.0886231   -0.6425221    0.1225251    0.7564080
   0.0089607   -0.3936515    0.0812248   -0.0407305   -0.2923160   -0.9554540
   0.0082084   -0.3932853    0.0812653   -0.3085275   -0.2435056   -0.9195193
   0.0090639   -0.3926159    0.0809543   -0.1185493   -0.2548383   -0.9596893
   0.0097512   -0.3999292    0.0823327    0.0900564    0.0735033   -0.9932206
   0.0090300   -0.3987224    0.0822722   -0.0335533   -0.1238567   -0.9917327
   0.0093599   -0.3996813    0.0823440   -0.1192038   -0.0022646   -0.9928672
   0.0090055   -0.3992370    0.0823665   -0.2838566   -0.1454820   -0.9477660
   0.0107758   -0.4005089    0.0829956    0.8455730    0.3409828   -0.4107761
   0.0099872   -0.4021347    0.0822054   -0.1261604    0.0819329   -0.9886205
   0.0107871   -0.4014487    0.0824070    0.5054575    0.2543865   -0.8245000
   0.0098359   -0.4016454    0.0823000   -0.2204024    0.0328228   -0.9748566
   0.0088456   -0.3972259    0.0821044   -0.0290847   -0.1534978   -0.9877209
   0.0086530   -0.3982809    0.0823199   -0.2773053   -0.1424878   -0.9501574
   0.0085546   -0.3972803    0.0821669   -0.3509800   -0.1896870   -0.9169689
   0.0081353   -0.3963357    0.0821951   -0.4079334   -0.1722657   -0.8966130
   0.0080074   -0.3953422    0.0820236   -0.4888255   -0.2441825   -0.8375109
   0.0112240   -0.4013063    0.0833760    0.8907428    0.4007527   -0.2144166
   0.0089763   -0.3850561    0.0784984    0.0931970   -0.3181441   -0.9434504
   0.0095112   -0.3874726    0.0793347    0.0646254   -0.2882910   -0.9553595
   0.0093778   -0.3829418    0.0780408    0.1948611   -0.0258431   -0.9804903
   0.0087487   -0.3835875    0.0779779   -0.0025653   -0.1098775   -0.9939418
   0.0086179   -0.3829442    0.0779909   -0.0659190    0.0793235   -0.9946670
   0.0085089   -0.3841416    0.0781131   -0.1428392   -0.3011366   -0.9428222
   0.0099726   -0.3823017    0.0781607    0.4021780    0.0077990   -0.9155283
   0.0101321   -0.3817464    0.0783195    0.4730408    0.1798402   -0.8624905
   0.0105348   -0.3805581    0.0797192    0.4899692    0.7922584   -0.3636714
   0.0103236   -0.3798962    0.0807236    0.1807321    0.8728203   -0.4533438
   0.0102764   -0.3800557    0.0804186    0.2156677    0.8717186   -0.4399932
   0.0102942   -0.3811850    0.0785802    0.6085850    0.3878513   -0.6922396
   0.0105496   -0.3807258    0.0793150    0.6669015    0.6598248   -0.3462277
   0.0104124   -0.3805550    0.0794865    0.5566397    0.8112116   -0.1791311
   0.0104898   -0.3808494    0.0790192    0.6536365    0.5726461   -0.4948088
   0.0080678   -0.3892617    0.0801475   -0.3942304   -0.2984379   -0.8692049
   0.0075715   -0.3912545    0.0810221   -0.4687596   -0.2279496   -0.8534070
   0.0079608   -0.3923137    0.0811484   -0.3688460   -0.2520651   -0.8946596
   0.0073751   -0.3903906    0.0808512   -0.6208140   -0.2216162   -0.7519816
   0.0075175   -0.3893515    0.0805131   -0.5234116   -0.2447653   -0.8161680
   0.0085538   -0.3871555    0.0792598   -0.1921626   -0.2981782   -0.9349670
   0.0079508   -0.3877661    0.0797227   -0.4034575   -0.3276743   -0.8543135
   0.0099931   -0.3794479    0.0815585    0.1915890    0.8905702   -0.4125268
   0.0061960   -0.3861967    0.0864526   -0.8090667   -0.0471108    0.5858256
   0.0063478   -0.3861578    0.0866235    0.7490310   -0.0449070    0.6610112
   0.0063478   -0.3861578    0.0866235    0.2999996   -0.1508610    0.9419348
   0.0060472   -0.3883067    0.0860617   -0.9222775   -0.0557126    0.3824921
   0.0059452   -0.3873070    0.0859146   -0.8967411   -0.0522020    0.4394660
   0.0069796   -0.3962962    0.0870409   -0.8589354   -0.0751780    0.5065356
   0.0067152   -0.3953364    0.0867406   -0.9075746   -0.0554726    0.4162104
   0.0056389   -0.3889913    0.0844911   -0.9887949   -0.0525703    0.1397175
   0.0057206   -0.3894718    0.0848002   -0.9823420   -0.0549489    0.1788429
   0.0062513   -0.3923779    0.0861396   -0.9357573   -0.0655952    0.3464903
   0.0055509   -0.3879988    0.0841828   -0.9941479   -0.0801171    0.0724656
   0.0054759   -0.3864421    0.0846823   -0.9728423   -0.1090608    0.2041657
   0.0058120   -0.3904743    0.0849648   -0.9842967   -0.0564102    0.1672658
   0.0059473   -0.3903041    0.0855543   -0.9602347   -0.0348736    0.2770075
   0.0061110   -0.3929539    0.0855428   -0.9769898   -0.0992676    0.1887774
   0.0062579   -0.3939403    0.0857550   -0.9566549   -0.1085717    0.2702287
   0.0064035   -0.3954652    0.0855621   -0.9717689   -0.0988962    0.2142071
   0.0056206   -0.3827201    0.0863050   -0.7735768   -0.0800100    0.6286313
   0.0053975   -0.3822628    0.0860948   -0.7513382   -0.0128651    0.6597920
   0.0059578   -0.3814210    0.0866413   -0.7032406    0.1080062    0.7027000
   0.0061158   -0.3810543    0.0866997   -0.6668974    0.2255841    0.7101829
   0.0064872   -0.3809675    0.0869278   -0.4164598    0.3523356    0.8381055
   0.0065468   -0.3805018    0.0866838   -0.3171285    0.6537752    0.6870280
   0.0061671   -0.3805356    0.0864526   -0.5546966    0.5581206    0.6171006
   0.0073743   -0.3807771    0.0871424   -0.1484459    0.6831945    0.7149889
   0.0079350   -0.3805163    0.0870055   -0.0588081    0.8133704    0.5787661
   0.0075404   -0.3804197    0.0867572   -0.1597471    0.9358596    0.3140822
   0.0068312   -0.3804036    0.0865867    0.0335880    0.9236614    0.3817349
   0.0063478   -0.3861578    0.0866235    0.7643730   -0.0999294    0.6369836
   0.0055459   -0.3853490    0.0855524   -0.8949815   -0.1645305    0.4146539
   0.0056831   -0.3863486    0.0856110   -0.9176835   -0.1016175    0.3840974
   0.0049504   -0.3823827    0.0855683   -0.8100533   -0.0653521    0.5827030
   0.0088005   -0.3802207    0.0859239   -0.3679974    0.9150692   -0.1650037
   0.0082347   -0.3804280    0.0869184   -0.0506279    0.8148150    0.5775061
   0.0096149   -0.3792304    0.0821115   -0.2359031    0.9225444   -0.3053876
   0.0096812   -0.3794290    0.0816319   -0.3218896    0.8365792   -0.4433085
   0.0081749   -0.3803070    0.0839489   -0.1941098    0.9580300    0.2109500
   0.0080443   -0.3800744    0.0827915   -0.1622533    0.9812324    0.1041959
   0.0087746   -0.3797105    0.0827767   -0.5490603    0.8356102    0.0169836
   0.0085108   -0.3800296    0.0820115   -0.4689437    0.8155364   -0.3391048
   0.0092024   -0.3793625    0.0823975   -0.5352667    0.8006492   -0.2691662
   0.0081153   -0.3805557    0.0849908   -0.1585377    0.9753162    0.1537011
   0.0081892   -0.3805566    0.0853018   -0.2637053    0.9620107   -0.0706755
   0.0081521   -0.3806214    0.0871147    0.0842780    0.8895679    0.4489611
   0.0071779   -0.3977908    0.0871849   -0.8586201   -0.0830294    0.5058434
   0.0081139   -0.3990876    0.0882191   -0.6641534    0.0468256    0.7461284
   0.0077363   -0.3986698    0.0878425   -0.7414595   -0.0118461    0.6708930
   0.0116417   -0.4020585    0.0868092    0.9319018    0.3213624   -0.1681823
   0.0115787   -0.4021329    0.0857108    0.9520610    0.3055805    0.0141537
   0.0117578   -0.4026461    0.0863823    0.9544477    0.2823082   -0.0966003
   0.0114321   -0.4016697    0.0853279    0.9477579    0.3134924    0.0589695
   0.0116725   -0.4020366    0.0841671    0.8986591    0.4243397   -0.1111198
   0.0120433   -0.4031076    0.0849892    0.9262585    0.3321245    0.1781531
   0.0117469   -0.4021830    0.0842213    0.8912048    0.4530189   -0.0229768
   0.0108137   -0.4010490    0.0894336    0.5620113    0.4118463    0.7173046
   0.0106173   -0.4010797    0.0895808    0.2705714    0.3895858    0.8803488
   0.0113033   -0.4020043    0.0895240    0.6903480    0.4567272    0.5610882
   0.0115310   -0.4019321    0.0891276    0.7537793    0.5257662    0.3941912
   0.0114493   -0.4015010    0.0882545    0.8669375    0.4844666    0.1170961
   0.0117569   -0.4019982    0.0874785    0.9315644    0.3449129   -0.1149902
   0.0095603   -0.4012928    0.0895662   -0.3059279    0.2223242    0.9257322
   0.0100446   -0.4017004    0.0897643   -0.2078527    0.1524354    0.9662094
   0.0084043   -0.4015610    0.0889521   -0.7595094    0.1791548    0.6253391
   0.0087624   -0.4019803    0.0893614   -0.5165048    0.1090709    0.8493093
   0.0082804   -0.4014910    0.0887007   -0.8305408    0.1800348    0.5270573
   0.0081267   -0.4007887    0.0882997   -0.8012986    0.0932912    0.5909461
   0.0080093   -0.3996291    0.0881278   -0.7952108   -0.0101603    0.6062479
   0.0074744   -0.3929011    0.0815899   -0.6039931   -0.2312405   -0.7627058
   0.0088381   -0.3997734    0.0825609   -0.4639608   -0.1388210   -0.8749109
   0.0084697   -0.4003441    0.0828992   -0.5948924   -0.1669450   -0.7862775
   0.0082898   -0.3988499    0.0826622   -0.5626742   -0.1944264   -0.8034900
   0.0113240   -0.4022228    0.0826340    0.7547892    0.3875424   -0.5292486
   0.0107117   -0.4019859    0.0822666    0.2418743    0.1850261   -0.9525031
   0.0105783   -0.4024130    0.0821869    0.1070051    0.0948798   -0.9897210
   0.0103649   -0.4025759    0.0821564   -0.1239458   -0.0352073   -0.9916642
   0.0095635   -0.4027259    0.0823795   -0.3427105   -0.1222504   -0.9314528
   0.0090471   -0.4023035    0.0825701   -0.4706607    0.0217507   -0.8820461
   0.0093349   -0.4017387    0.0824479   -0.4029630    0.0646259   -0.9129317
   0.0113261   -0.4028927    0.0824085    0.4534276    0.1047054   -0.8851216
   0.0089429   -0.4009934    0.0826959   -0.5263372   -0.0461934   -0.8490202
   0.0079366   -0.3978907    0.0826953   -0.6032520   -0.2085467   -0.7698021
   0.0080476   -0.3973667    0.0824671   -0.5807683   -0.2072339   -0.7872499
   0.0073729   -0.3954442    0.0824730   -0.6457228   -0.2110920   -0.7338135
   0.0073862   -0.3944311    0.0821564   -0.6880425   -0.2345909   -0.6867056
   0.0072084   -0.3934468    0.0819900   -0.6679962   -0.2264341   -0.7088785
   0.0116504   -0.4021057    0.0833597    0.8619957    0.4608032   -0.2112434
   0.0086513   -0.3856237    0.0786989   -0.1003007   -0.3260240   -0.9400256
   0.0076888   -0.3847941    0.0785917   -0.2483154   -0.3518649   -0.9025135
   0.0086819   -0.3861221    0.0788844   -0.1722324   -0.3473082   -0.9217988
   0.0088857   -0.3820086    0.0781224   -0.1620346    0.2167510   -0.9626857
   0.0087987   -0.3825472    0.0780016   -0.1518423    0.1701482   -0.9736496
   0.0096540   -0.3818536    0.0781107    0.1034568    0.1754744   -0.9790329
   0.0079622   -0.3837339    0.0781663   -0.3410313   -0.1247436   -0.9317385
   0.0083851   -0.3831442    0.0780031   -0.2837908    0.0702834   -0.9563070
   0.0078535   -0.3827187    0.0783097   -0.3501597    0.1906925   -0.9170739
   0.0073125   -0.3843553    0.0786009   -0.4723767   -0.2669772   -0.8399901
   0.0096895   -0.3812090    0.0782827    0.0838864    0.4663159   -0.8806319
   0.0098661   -0.3810761    0.0783833    0.2619333    0.5018238   -0.8243567
   0.0101269   -0.3812262    0.0784353    0.4747539    0.4340716   -0.7656308
   0.0098870   -0.3800804    0.0802004   -0.0388771    0.9480981   -0.3155924
   0.0098838   -0.3803161    0.0794138    0.1384723    0.9435690   -0.3008372
   0.0098263   -0.3799334    0.0806862   -0.2208024    0.8940167   -0.3898467
   0.0102888   -0.3807694    0.0788914    0.4136150    0.7062894   -0.5745240
   0.0097675   -0.3805939    0.0788266    0.2127830    0.7696240   -0.6019987
   0.0102084   -0.3804482    0.0793553    0.4797529    0.8194941   -0.3134750
   0.0075159   -0.3888458    0.0803570   -0.5661982   -0.2772301   -0.7762493
   0.0073620   -0.3914038    0.0811681   -0.5873363   -0.2183924   -0.7793208
   0.0071343   -0.3909293    0.0812667   -0.7169262   -0.1917412   -0.6702627
   0.0070151   -0.3889212    0.0808110   -0.6849691   -0.2171351   -0.6954636
   0.0063930   -0.3895061    0.0817923   -0.8249633   -0.1775487   -0.5365743
   0.0062521   -0.3885130    0.0816483   -0.8393815   -0.1953675   -0.5072181
   0.0080307   -0.3867446    0.0792837   -0.3123066   -0.3162675   -0.8957899
   0.0080279   -0.3862391    0.0791297   -0.2700754   -0.3321575   -0.9037315
   0.0073587   -0.3873616    0.0798677   -0.6166972   -0.3021622   -0.7268993
   0.0073089   -0.3864775    0.0795198   -0.5975704   -0.3299432   -0.7307853
   0.0076872   -0.3868058    0.0794341   -0.3779083   -0.3465080   -0.8585555
   0.0057010   -0.3868666    0.0854697   -0.9430363   -0.1016109    0.3167928
   0.0066641   -0.3964005    0.0862939   -0.9580159   -0.1182792    0.2611812
   0.0067684   -0.3968856    0.0864408   -0.9323234   -0.1121860    0.3437840
   0.0057137   -0.3900271    0.0841200   -0.9956151   -0.0912966    0.0203813
   0.0055820   -0.3885223    0.0838970   -0.9937789   -0.0898141   -0.0658559
   0.0060209   -0.3919444    0.0855164   -0.9727917   -0.0717266    0.2202990
   0.0054604   -0.3869976    0.0839997   -0.9885079   -0.1335092    0.0709041
   0.0053905   -0.3865230    0.0835499   -0.9822432   -0.1735646   -0.0712294
   0.0054661   -0.3860564    0.0824139   -0.9718475   -0.1603680   -0.1726109
   0.0052546   -0.3854770    0.0843168   -0.9678002   -0.1826806    0.1731780
   0.0058288   -0.3910015    0.0846702   -0.9929654   -0.1003419    0.0628580
   0.0062887   -0.3950080    0.0849733   -0.9887939   -0.1492778   -0.0016619
   0.0061171   -0.3935387    0.0842509   -0.9881295   -0.1366926   -0.0701082
   0.0064626   -0.3959883    0.0851966   -0.9874995   -0.1553265    0.0268019
   0.0053401   -0.3816975    0.0860116   -0.7535349    0.1028135    0.6493185
   0.0048714   -0.3813785    0.0853830   -0.8131412    0.1847993    0.5519517
   0.0056326   -0.3808955    0.0861450   -0.7108738    0.3348972    0.6184677
   0.0066456   -0.3803335    0.0864685   -0.1330171    0.9178055    0.3740850
   0.0052066   -0.3807899    0.0855129   -0.7370837    0.4363846    0.5160194
   0.0058842   -0.3803836    0.0860037   -0.2723388    0.9065622    0.3224540
   0.0081390   -0.3805018    0.0857997   -0.0636699    0.9912014   -0.1160425
   0.0067620   -0.3803203    0.0862734    0.0805236    0.9952592    0.0545446
   0.0047269   -0.3824534    0.0850924   -0.9147751   -0.1424672    0.3780074
   0.0046237   -0.3824091    0.0848150   -0.9480745   -0.1939166    0.2520933
   0.0047611   -0.3819197    0.0853013   -0.8943683    0.0036338    0.4473165
   0.0093904   -0.3795940    0.0817285   -0.5682593    0.6997899   -0.4328690
   0.0095308   -0.3800564    0.0807777   -0.5664454    0.7437539   -0.3549221
   0.0091508   -0.3795607    0.0821113   -0.5223437    0.7369213   -0.4290735
   0.0079853   -0.3803267    0.0838336   -0.1592931    0.9649615    0.2085064
   0.0075716   -0.3804493    0.0841185   -0.0905050    0.9676618    0.2354560
   0.0077892   -0.3802891    0.0837109    0.0291474    0.9340027    0.3560749
   0.0079787   -0.3803268    0.0838295    0.1772995    0.9491616    0.2601097
   0.0079742   -0.3801060    0.0824842   -0.2561790    0.9437848   -0.2089080
   0.0074775   -0.3801490    0.0824478   -0.0372716    0.9517661   -0.3045525
   0.0084554   -0.3799287    0.0825034   -0.3829942    0.9089292   -0.1648125
   0.0070406   -0.3800664    0.0827061    0.3112587    0.9325943   -0.1827181
   0.0072817   -0.3802362    0.0836621    0.2349098    0.9368155    0.2592181
   0.0091283   -0.3802785    0.0810754   -0.5107251    0.7600013   -0.4019427
   0.0089291   -0.3799474    0.0817316   -0.5086072    0.7169251   -0.4767988
   0.0086521   -0.3804997    0.0810616   -0.3079332    0.8675569   -0.3905409
   0.0082235   -0.3804900    0.0813299   -0.2319217    0.8919887   -0.3880316
   0.0076961   -0.3806303    0.0852694    0.0024372    0.9994734   -0.0323567
   0.0074598   -0.3805027    0.0843190   -0.0109660    0.9790255    0.2034426
   0.0074570   -0.3987483    0.0874599   -0.8306056   -0.0888414    0.5497286
   0.0067795   -0.3974119    0.0862121   -0.9697322   -0.1463563    0.1954466
   0.0076634   -0.4007723    0.0873242   -0.9408417   -0.1569501    0.3003057
   0.0071476   -0.3983231    0.0869692   -0.9280746   -0.1272628    0.3499739
   0.0117263   -0.4021055    0.0871297    0.9433214    0.2880490   -0.1648407
   0.0117785   -0.4025544    0.0866559    0.9495799    0.2707292   -0.1581257
   0.0118373   -0.4029597    0.0859180    0.9664885    0.2506167    0.0555992
   0.0118994   -0.4030414    0.0867070    0.9738032    0.2010419   -0.1062523
   0.0120616   -0.4036030    0.0852948    0.9642737    0.1169598    0.2376902
   0.0124791   -0.4035923    0.0839553    0.9688418    0.2166611    0.1200146
   0.0123198   -0.4031156    0.0838760    0.9031749    0.4280471    0.0324156
   0.0121984   -0.4029027    0.0840088    0.8689706    0.4905282    0.0653625
   0.0120353   -0.4027684    0.0833685    0.8381550    0.5084675   -0.1973752
   0.0117099   -0.4022411    0.0833046    0.8308269    0.4805366   -0.2807334
   0.0114826   -0.4029307    0.0899538    0.5015417    0.3714565    0.7813297
   0.0108133   -0.4020515    0.0899105    0.2199344    0.3126631    0.9240512
   0.0104871   -0.4016090    0.0897973    0.1731387    0.3094307    0.9350271
   0.0105379   -0.4017552    0.0898368    0.0520757    0.2737532    0.9603891
   0.0115660   -0.4026264    0.0897212    0.5919421    0.4713936    0.6537527
   0.0121051   -0.4028563    0.0892678    0.8417023    0.3665002    0.3965032
   0.0117722   -0.4019825    0.0887468    0.7886670    0.5584566    0.2571588
   0.0118628   -0.4028822    0.0896527    0.6410618    0.4024257    0.6535237
   0.0120423   -0.4023870    0.0886702    0.9093070    0.4148346    0.0327578
   0.0119709   -0.4023060    0.0880897    0.9116575    0.4021127   -0.0847707
   0.0121083   -0.4029302    0.0879442    0.9838553    0.1282710   -0.1248013
   0.0093219   -0.4028827    0.0895922   -0.3414717   -0.0173124    0.9397326
   0.0095592   -0.4038632    0.0896240   -0.3262439    0.0594962    0.9434114
   0.0086318   -0.4025233    0.0893138   -0.5144444    0.0019132    0.8575216
   0.0111779   -0.4035050    0.0902013   -0.0266258    0.1407068    0.9896932
   0.0083167   -0.4026059    0.0889910   -0.8378995    0.0049178    0.5458024
   0.0081428   -0.4016365    0.0885397   -0.8845562    0.0976009    0.4561079
   0.0080091   -0.4011697    0.0881799   -0.9249057   -0.0154305    0.3798833
   0.0068373   -0.3929907    0.0822677   -0.7808727   -0.1805160   -0.5980400
   0.0068925   -0.3919703    0.0819296   -0.7557550   -0.1911056   -0.6263489
   0.0084448   -0.4008551    0.0830378   -0.6534806   -0.1200944   -0.7473556
   0.0083302   -0.3998570    0.0829120   -0.6744506   -0.1896529   -0.7135462
   0.0117576   -0.4026645    0.0829260    0.7921266    0.3636192   -0.4902208
   0.0116695   -0.4027980    0.0826807    0.7174103    0.2627296   -0.6452097
   0.0108325   -0.4024779    0.0822235    0.2872166    0.0791713   -0.9545882
   0.0106924   -0.4030235    0.0821917    0.1050024   -0.1098763   -0.9883834
   0.0098888   -0.4031754    0.0823401   -0.3124013   -0.2006824   -0.9285106
   0.0101679   -0.4031249    0.0822425   -0.1819613   -0.1671165   -0.9690006
   0.0092357   -0.4037984    0.0827725   -0.3546408   -0.2374392   -0.9043520
   0.0085720   -0.4028993    0.0828443   -0.4935236   -0.1264583   -0.8604899
   0.0083981   -0.4024122    0.0829753   -0.7345140    0.0223801   -0.6782243
   0.0084463   -0.4020746    0.0829853   -0.7236897    0.0789693   -0.6855925
   0.0087925   -0.4018287    0.0827726   -0.5583827    0.0610471   -0.8273343
   0.0118744   -0.4037883    0.0826547    0.5704749    0.0436832   -0.8201525
   0.0111898   -0.4034273    0.0823676    0.3042956   -0.0766983   -0.9494849
   0.0109691   -0.4034757    0.0823124    0.1901196   -0.1636988   -0.9680172
   0.0083465   -0.4013841    0.0831500   -0.6952394    0.0005921   -0.7187780
   0.0075293   -0.3974433    0.0829512   -0.7140466   -0.1959321   -0.6721221
   0.0080388   -0.4009137    0.0834656   -0.8019621   -0.1634094   -0.5745904
   0.0072371   -0.3964723    0.0829812   -0.8021721   -0.2014707   -0.5620760
   0.0068242   -0.3945027    0.0828793   -0.8293046   -0.2084461   -0.5184632
   0.0067408   -0.3940099    0.0827994   -0.8392834   -0.2163037   -0.4988146
   0.0067774   -0.3935039    0.0825264   -0.8035997   -0.2112048   -0.5564351
   0.0075303   -0.3858276    0.0790860   -0.4642275   -0.3462120   -0.8152485
   0.0076485   -0.3822367    0.0784945   -0.2840576    0.1701296   -0.9435927
   0.0084442   -0.3811525    0.0785782   -0.2239229    0.4797032   -0.8483769
   0.0090456   -0.3816433    0.0781782   -0.1647668    0.2988695   -0.9399622
   0.0077829   -0.3816926    0.0785358    0.0013899    0.2256424   -0.9742092
   0.0093680   -0.3811056    0.0783448   -0.1391806    0.5344344   -0.8336718
   0.0072526   -0.3838570    0.0785351   -0.6176538   -0.0802485   -0.7823451
   0.0073526   -0.3833265    0.0784578   -0.4757055    0.0671713   -0.8770361
   0.0074341   -0.3822764    0.0785549   -0.3415157    0.1199812   -0.9321864
   0.0070341   -0.3847077    0.0789824   -0.6833108   -0.2583500   -0.6828921
   0.0092747   -0.3806713    0.0787945   -0.1544829    0.7990549   -0.5810734
   0.0095843   -0.3806712    0.0787188   -0.0503406    0.7150473   -0.6972612
   0.0094709   -0.3801799    0.0804824   -0.6190110    0.7245381   -0.3031007
   0.0095674   -0.3802222    0.0800119   -0.3580510    0.9131823   -0.1946732
   0.0094548   -0.3803047    0.0796816   -0.3374971    0.9322780   -0.1302054
   0.0071527   -0.3878931    0.0803037   -0.7198365   -0.2475691   -0.6484944
   0.0062900   -0.3905253    0.0823205   -0.8703183   -0.1639124   -0.4644122
   0.0059845   -0.3895391    0.0826569   -0.9118897   -0.1744562   -0.3715133
   0.0058487   -0.3875377    0.0821419   -0.9094369   -0.1850134   -0.3724172
   0.0058445   -0.3885443    0.0825740   -0.9175767   -0.1530374   -0.3669231
   0.0066345   -0.3849390    0.0798140   -0.8115936   -0.2591274   -0.5236113
   0.0055323   -0.3855606    0.0818328   -0.8951597   -0.2558908   -0.3649782
   0.0058333   -0.3855358    0.0812180   -0.8248999   -0.2591611   -0.5023701
   0.0061406   -0.3851438    0.0805864   -0.7840416   -0.2566889   -0.5651457
   0.0071211   -0.3868984    0.0799609   -0.7775615   -0.2677179   -0.5689686
   0.0070070   -0.3859059    0.0795671   -0.7898660   -0.2807923   -0.5452223
   0.0058204   -0.3910454    0.0839237   -0.9865776   -0.1146741   -0.1162520
   0.0057151   -0.3895463    0.0835062   -0.9675547   -0.1344301   -0.2139309
   0.0056582   -0.3885492    0.0831471   -0.9725017   -0.1045133   -0.2081285
   0.0056920   -0.3870470    0.0822829   -0.9487057   -0.1555991   -0.2752206
   0.0051905   -0.3855333    0.0835674   -0.9748000   -0.2227936    0.0113100
   0.0052364   -0.3855519    0.0830651   -0.9553701   -0.2658820   -0.1287427
   0.0050996   -0.3850134    0.0839861   -0.9591318   -0.2541092    0.1244777
   0.0058713   -0.3915453    0.0839841   -0.9754095   -0.1302542   -0.1777924
   0.0064182   -0.3950360    0.0839909   -0.9352586   -0.1886458   -0.2995065
   0.0065832   -0.3960238    0.0841492   -0.9495261   -0.1776015   -0.2585691
   0.0061551   -0.3930463    0.0837139   -0.9479868   -0.1477175   -0.2819586
   0.0065365   -0.3965023    0.0849463   -0.9864163   -0.1550619   -0.0542104
   0.0045360   -0.3814866    0.0846691   -0.9368175    0.1197887    0.3286696
   0.0045760   -0.3809769    0.0844434   -0.8917294    0.2965784    0.3418479
   0.0056115   -0.3803239    0.0855667   -0.4180952    0.8125113    0.4062288
   0.0047336   -0.3806498    0.0845146   -0.8100280    0.4516378    0.3740025
   0.0051629   -0.3804025    0.0850300   -0.6900142    0.5924767    0.4157544
   0.0054297   -0.3804106    0.0854600   -0.6310842    0.6126336    0.4758285
   0.0066907   -0.3803443    0.0859652    0.0996825    0.9858339   -0.1348886
   0.0059082   -0.3802085    0.0854763   -0.0729271    0.9716883    0.2247296
   0.0062217   -0.3802429    0.0854051    0.2477481    0.9630287    0.1058137
   0.0045452   -0.3819947    0.0847428   -0.9553776   -0.0622262    0.2887586
   0.0044779   -0.3830961    0.0837017   -0.9549890   -0.2728160    0.1164796
   0.0043647   -0.3826120    0.0835729   -0.9787163   -0.1458017    0.1444168
   0.0092449   -0.3802674    0.0808805   -0.6619735    0.6891876   -0.2946380
   0.0076818   -0.3803826    0.0839161    0.6808982    0.7075240    0.1891756
   0.0074461   -0.3804224    0.0840396    0.2340871    0.9120035    0.3368277
   0.0076818   -0.3803826    0.0839161    0.8304625    0.5081160    0.2283641
   0.0074823   -0.3803141    0.0837896    0.2536046    0.8796609    0.4023449
   0.0082307   -0.3808178    0.0805552   -0.1557682    0.9598230   -0.2334012
   0.0073000   -0.3808033    0.0807808    0.0857243    0.9699215   -0.2278238
   0.0068555   -0.3806538    0.0810310    0.2691756    0.8966016   -0.3516392
   0.0069138   -0.3799876    0.0828897    0.5196448    0.8535809    0.0369983
   0.0066336   -0.3798606    0.0824443    0.5286276    0.8084398   -0.2588011
   0.0064585   -0.3802457    0.0815550    0.4801057    0.7925894   -0.3758997
   0.0061294   -0.3795718    0.0831819    0.4084979    0.8594862    0.3072669
   0.0068559   -0.3802515    0.0839335    0.2982574    0.8827979    0.3629193
   0.0087135   -0.3806542    0.0805763   -0.4174899    0.8945286   -0.1597525
   0.0071874   -0.3805660    0.0852190    0.1241147    0.9887111   -0.0839393
   0.0070552   -0.3804841    0.0843354    0.2165585    0.9505160    0.2227596
   0.0066995   -0.3974899    0.0851036   -0.9822564   -0.1863077   -0.0214894
   0.0069052   -0.3984378    0.0858170   -0.9737957   -0.2102855    0.0866142
   0.0072824   -0.3993290    0.0868984   -0.9548792   -0.1726225    0.2416758
   0.0077056   -0.4012967    0.0870065   -0.9763192   -0.1675457    0.1368552
   0.0075150   -0.4008735    0.0860669   -0.9727442   -0.2259033    0.0523100
   0.0073512   -0.4002051    0.0859276   -0.9691834   -0.2401755    0.0547652
   0.0119651   -0.4035797    0.0860323    0.9944183    0.0792795    0.0696201
   0.0119575   -0.4037548    0.0868359    0.9985804   -0.0364277   -0.0388624
   0.0123701   -0.4041025    0.0844497    0.9509358   -0.0007501    0.3093874
   0.0123615   -0.4051450    0.0842388    0.9601383   -0.1395173    0.2422176
   0.0125577   -0.4041005    0.0837946    0.9932234    0.0275870    0.1128988
   0.0124378   -0.4036324    0.0834004    0.9231009    0.2553488   -0.2875442
   0.0122930   -0.4031427    0.0834958    0.8903270    0.3873977   -0.2392505
   0.0116088   -0.4034263    0.0900599    0.4629429    0.2011534    0.8632620
   0.0112422   -0.4029839    0.0900752    0.2853140    0.2581206    0.9230220
   0.0121652   -0.4028574    0.0890387    0.9589106    0.2450213    0.1430211
   0.0119806   -0.4033682    0.0897530    0.7785502    0.1701869    0.6040662
   0.0121264   -0.4033543    0.0894625    0.9615340    0.0699820    0.2656216
   0.0122091   -0.4033703    0.0888988    0.9999065   -0.0115783    0.0072744
   0.0120263   -0.4040957    0.0876958    0.9782194   -0.1861528   -0.0918365
   0.0089403   -0.4045127    0.0894318   -0.5173725   -0.0067333    0.8557338
   0.0085436   -0.4030622    0.0891953   -0.6183793   -0.0598847    0.7835948
   0.0108765   -0.4045964    0.0901738   -0.0242322   -0.1454389    0.9890704
   0.0110057   -0.4040520    0.0902235   -0.1362804    0.0081429    0.9906368
   0.0098751   -0.4053274    0.0898843   -0.2947838   -0.0811503    0.9521119
   0.0103036   -0.4052343    0.0900168   -0.1778691   -0.1533174    0.9720372
   0.0093865   -0.4049231    0.0896938   -0.3938063    0.0583816    0.9173376
   0.0106979   -0.4048544    0.0901154   -0.1930502   -0.0717177    0.9785644
   0.0113723   -0.4039787    0.0902128    0.2830464    0.0025575    0.9591028
   0.0084694   -0.4046353    0.0889456   -0.8025562   -0.1322082    0.5817427
   0.0082332   -0.4041890    0.0885627   -0.9514710   -0.1751959    0.2530007
   0.0080960   -0.4031960    0.0884206   -0.9688910   -0.0633436    0.2392444
   0.0079691   -0.4022148    0.0880199   -0.9714276   -0.0335156    0.2349575
   0.0078874   -0.4017357    0.0876918   -0.9785842   -0.0548248    0.1984115
   0.0065853   -0.3920089    0.0823220   -0.8233678   -0.1726732   -0.5406010
   0.0063763   -0.3927964    0.0830372   -0.8989980   -0.1657816   -0.4053628
   0.0122083   -0.4037042    0.0829457    0.7585487    0.2053618   -0.6184096
   0.0107217   -0.4036757    0.0823485   -0.0201366   -0.3196670   -0.9473160
   0.0102951   -0.4036090    0.0823483   -0.1575927   -0.3121141   -0.9368828
   0.0096286   -0.4042338    0.0827730   -0.3014460   -0.3304878   -0.8943759
   0.0088133   -0.4038734    0.0829479   -0.4400109   -0.3025842   -0.8454781
   0.0084373   -0.4034284    0.0830586   -0.6979002   -0.1748193   -0.6945311
   0.0081772   -0.4024347    0.0833728   -0.9380497    0.0124565   -0.3462767
   0.0082662   -0.4029415    0.0831908   -0.8696778   -0.0911018   -0.4851402
   0.0082146   -0.4019132    0.0833655   -0.9066173   -0.0169524   -0.4216132
   0.0119626   -0.4047898    0.0828247    0.3815500   -0.2887303   -0.8780971
   0.0122946   -0.4042000    0.0829597    0.7203572   -0.0081096   -0.6935559
   0.0121606   -0.4047440    0.0829183    0.5783477   -0.2472942   -0.7774056
   0.0114836   -0.4048891    0.0827768    0.0065622   -0.3482676   -0.9373722
   0.0074130   -0.3984660    0.0834711   -0.8505473   -0.2461400   -0.4647412
   0.0079841   -0.4019165    0.0841273   -0.9644826   -0.1461230   -0.2200486
   0.0070916   -0.3989786    0.0846701   -0.9368138   -0.2594797   -0.2346278
   0.0070366   -0.3979972    0.0840193   -0.9182444   -0.1958442   -0.3441980
   0.0075089   -0.3817460    0.0785699    0.6101641    0.0695759   -0.7892142
   0.0091391   -0.3808974    0.0786561   -0.2134071    0.6476556   -0.7314367
   0.0076571   -0.3813622    0.0786387   -0.0042843    0.3911457   -0.9203188
   0.0084793   -0.3808085    0.0788454   -0.1809497    0.7631417   -0.6203805
   0.0075089   -0.3817460    0.0785699    0.9444762    0.0784244   -0.3190837
   0.0066131   -0.3839465    0.0792116   -0.7587280   -0.2127838   -0.6156743
   0.0069270   -0.3828775    0.0788102   -0.5575292   -0.0613283   -0.8278889
