NORM_ASCII
5434 9510
3 2481 2484 2489 
3 2491 2493 2485 
3 2494 2486 2485 
3 2494 2485 2493 
3 2495 2488 2486 
3 2495 2486 2494 
3 2488 2495 2496 
3 2496 2497 2488 
3 2490 2488 2497 
3 2492 2490 2498 
3 2498 2490 2497 
3 2491 2499 2493 
3 2500 2499 2491 
3 2501 2502 2491 
3 2492 2501 2491 
3 2491 2502 2500 
3 2501 2492 2498 
3 2495 2494 2493 
3 2495 2493 2503 
3 2499 2503 2493 
3 2496 2495 2503 
3 2496 2503 2504 
3 2505 2497 2496 
3 2504 2505 2496 
3 2501 2498 2497 
3 2505 2501 2497 
3 2504 2503 2499 
3 2504 2499 2500 
3 2500 2502 2504 
3 2501 2505 2502 
3 2502 2505 2504 
3 2506 2507 2508 
3 2509 2507 2506 
3 2509 2506 2510 
3 2508 2511 2506 
3 2506 2511 2512 
3 2510 2506 2512 
3 2507 2513 2508 
3 2513 2507 2509 
3 2513 2514 2508 
3 2515 2516 2508 
3 2508 2517 2515 
3 2518 2517 2508 
3 2508 2514 2518 
3 2508 2519 2511 
3 2508 2520 2519 
3 2508 2516 2521 
3 2521 2522 2508 
3 2508 2522 2523 
3 2523 2520 2508 
3 2524 2525 2509 
3 2524 2509 2510 
3 2526 2509 2525 
3 2513 2509 2526 
3 2510 2512 2524 
3 2512 2511 2519 
3 2512 2527 2524 
3 2527 2512 2528 
3 2528 2512 2519 
3 2514 2513 2526 
3 2514 2526 2529 
3 2518 2514 2529 
3 2516 2515 2530 
3 2517 2530 2515 
3 2516 2530 2531 
3 2532 2521 2516 
3 2531 2532 2516 
3 2533 2534 2517 
3 2533 2517 2518 
3 2517 2534 2535 
3 2517 2535 2530 
3 2518 2529 2533 
3 2528 2519 2520 
3 2536 2528 2520 
3 2536 2520 2523 
3 2521 2532 2522 
3 2522 2537 2538 
3 2523 2522 2538 
3 2539 2537 2522 
3 2532 2539 2522 
3 2538 2536 2523 
3 2540 2525 2524 
3 2524 2527 2540 
3 2540 2541 2525 
3 2542 2525 2541 
3 2526 2525 2542 
3 2529 2526 2542 
3 2527 2543 2540 
3 2543 2527 2544 
3 2544 2527 2528 
3 2544 2528 2536 
3 2529 2542 2545 
3 2533 2529 2545 
3 2546 2531 2530 
3 2546 2530 2535 
3 2531 2546 2547 
3 2547 2548 2531 
3 2532 2531 2548 
3 2539 2532 2548 
3 2533 2545 2549 
3 2549 2534 2533 
3 2549 2550 2534 
3 2535 2534 2551 
3 2534 2550 2551 
3 2546 2535 2551 
3 2552 2544 2536 
3 2552 2536 2538 
3 2537 2553 2554 
3 2538 2537 2554 
3 2555 2537 2539 
3 2555 2553 2537 
3 2554 2552 2538 
3 2555 2539 2548 
3 2556 2541 2540 
3 2540 2543 2556 
3 2556 2557 2541 
3 2558 2541 2557 
3 2542 2541 2558 
3 2545 2542 2558 
3 2543 2559 2556 
3 2559 2543 2560 
3 2560 2543 2544 
3 2560 2544 2552 
3 2545 2558 2561 
3 2549 2545 2561 
3 2547 2546 2562 
3 2546 2563 2562 
3 2546 2551 2563 
3 2547 2562 2564 
3 2565 2548 2547 
3 2564 2565 2547 
3 2565 2566 2548 
3 2566 2555 2548 
3 2549 2561 2567 
3 2567 2550 2549 
3 2567 2568 2550 
3 2569 2550 2570 
3 2571 2570 2550 
3 2571 2550 2568 
3 2550 2569 2551 
3 2563 2551 2572 
3 2572 2551 2569 
3 2573 2560 2552 
3 2573 2552 2554 
3 2553 2574 2575 
3 2554 2553 2575 
3 2576 2553 2577 
3 2553 2576 2578 
3 2574 2553 2578 
3 2555 2577 2553 
3 2575 2573 2554 
3 2579 2555 2566 
3 2577 2555 2579 
3 2580 2557 2556 
3 2556 2559 2580 
3 2580 2581 2557 
3 2582 2557 2581 
3 2558 2557 2582 
3 2561 2558 2582 
3 2559 2583 2580 
3 2583 2559 2584 
3 2584 2559 2560 
3 2584 2560 2573 
3 2561 2582 2585 
3 2567 2561 2585 
3 2564 2562 2586 
3 2562 2563 2587 
3 2562 2587 2586 
3 2572 2587 2563 
3 2564 2586 2588 
3 2589 2565 2564 
3 2588 2589 2564 
3 2590 2566 2565 
3 2589 2590 2565 
3 2566 2590 2579 
3 2567 2585 2591 
3 2591 2568 2567 
3 2591 2592 2568 
3 2593 2571 2568 
3 2593 2568 2592 
3 2594 2595 2569 
3 2594 2569 2596 
3 2569 2570 2571 
3 2569 2571 2596 
3 2569 2595 2597 
3 2569 2597 2572 
3 2571 2598 2599 
3 2571 2599 2596 
3 2593 2598 2571 
3 2600 2572 2601 
3 2572 2600 2602 
3 2572 2602 2603 
3 2597 2601 2572 
3 2572 2603 2587 
3 2604 2584 2573 
3 2604 2573 2575 
3 2574 2605 2606 
3 2575 2574 2606 
3 2574 2578 2607 
3 2605 2574 2607 
3 2606 2604 2575 
3 2578 2576 2577 
3 2577 2608 2609 
3 2610 2577 2609 
3 2610 2578 2577 
3 2611 2608 2577 
3 2579 2611 2577 
3 2612 2613 2578 
3 2610 2612 2578 
3 2578 2613 2607 
3 2614 2579 2600 
3 2602 2600 2579 
3 2615 2602 2579 
3 2579 2614 2611 
3 2590 2615 2579 
3 2581 2580 2616 
3 2616 2580 2583 
3 2582 2581 2617 
3 2617 2581 2616 
3 2618 2585 2582 
3 2618 2582 2617 
3 2619 2583 2584 
3 2616 2583 2619 
3 2584 2604 2620 
3 2619 2584 2620 
3 2621 2591 2585 
3 2621 2585 2618 
3 2622 2623 2586 
3 2586 2624 2622 
3 2586 2603 2624 
3 2603 2586 2587 
3 2588 2586 2616 
3 2586 2625 2616 
3 2623 2625 2586 
3 2616 2589 2588 
3 2589 2626 2627 
3 2627 2628 2589 
3 2628 2615 2589 
3 2590 2589 2615 
3 2616 2629 2589 
3 2589 2629 2626 
3 2621 2592 2591 
3 2625 2593 2592 
3 2621 2625 2592 
3 2625 2623 2593 
3 2593 2630 2598 
3 2630 2593 2631 
3 2631 2593 2623 
3 2632 2633 2594 
3 2633 2595 2594 
3 2594 2596 2630 
3 2634 2594 2630 
3 2632 2594 2634 
3 2635 2636 2595 
3 2633 2637 2595 
3 2595 2636 2597 
3 2595 2638 2635 
3 2595 2637 2638 
3 2596 2599 2630 
3 2601 2597 2639 
3 2640 2639 2597 
3 2640 2597 2636 
3 2630 2641 2598 
3 2641 2599 2598 
3 2641 2642 2599 
3 2642 2643 2599 
3 2599 2643 2630 
3 2600 2601 2644 
3 2644 2614 2600 
3 2644 2601 2645 
3 2601 2639 2645 
3 2646 2647 2602 
3 2602 2647 2648 
3 2602 2648 2649 
3 2649 2603 2602 
3 2602 2650 2646 
3 2651 2650 2602 
3 2652 2651 2602 
3 2602 2615 2652 
3 2649 2653 2603 
3 2603 2653 2624 
3 2604 2606 2654 
3 2620 2604 2654 
3 2606 2605 2654 
3 2605 2607 2629 
3 2605 2629 2654 
3 2607 2626 2629 
3 2613 2655 2607 
3 2656 2607 2655 
3 2626 2607 2656 
3 2608 2657 2658 
3 2609 2608 2659 
3 2608 2660 2659 
3 2611 2657 2608 
3 2658 2661 2608 
3 2661 2660 2608 
3 2609 2659 2662 
3 2655 2610 2609 
3 2655 2609 2663 
3 2663 2609 2662 
3 2655 2612 2610 
3 2664 2611 2614 
3 2611 2664 2665 
3 2657 2611 2665 
3 2612 2666 2667 
3 2613 2612 2667 
3 2612 2668 2666 
3 2655 2668 2612 
3 2613 2667 2655 
3 2669 2614 2644 
3 2669 2664 2614 
3 2615 2670 2652 
3 2628 2670 2615 
3 2618 2617 2616 
3 2621 2618 2616 
3 2625 2621 2616 
3 2616 2619 2620 
3 2616 2620 2654 
3 2616 2654 2629 
3 2623 2622 2631 
3 2632 2631 2622 
3 2671 2632 2622 
3 2671 2622 2672 
3 2622 2653 2672 
3 2653 2622 2624 
3 2656 2627 2626 
3 2627 2656 2662 
3 2627 2662 2673 
3 2674 2627 2673 
3 2674 2670 2627 
3 2628 2627 2670 
3 2630 2643 2641 
3 2630 2631 2634 
3 2632 2634 2631 
3 2632 2675 2633 
3 2675 2632 2671 
3 2633 2675 2676 
3 2637 2633 2676 
3 2640 2636 2635 
3 2635 2677 2678 
3 2635 2678 2679 
3 2635 2679 2640 
3 2677 2635 2680 
3 2638 2680 2635 
3 2637 2676 2671 
3 2637 2671 2672 
3 2653 2638 2637 
3 2653 2637 2672 
3 2649 2638 2653 
3 2680 2638 2648 
3 2648 2638 2649 
3 2640 2681 2639 
3 2639 2681 2645 
3 2640 2679 2681 
3 2641 2643 2642 
3 2644 2645 2682 
3 2644 2682 2683 
3 2684 2669 2644 
3 2683 2684 2644 
3 2645 2681 2682 
3 2685 2647 2646 
3 2646 2686 2687 
3 2646 2687 2685 
3 2646 2650 2688 
3 2689 2686 2646 
3 2688 2689 2646 
3 2685 2648 2647 
3 2685 2680 2648 
3 2650 2651 2688 
3 2651 2690 2688 
3 2651 2661 2690 
3 2652 2661 2651 
3 2670 2661 2652 
3 2667 2668 2655 
3 2663 2656 2655 
3 2656 2663 2662 
3 2658 2657 2665 
3 2691 2692 2658 
3 2693 2691 2658 
3 2665 2693 2658 
3 2690 2658 2692 
3 2658 2690 2661 
3 2659 2694 2662 
3 2695 2694 2659 
3 2695 2659 2660 
3 2673 2695 2660 
3 2674 2673 2660 
3 2660 2661 2670 
3 2674 2660 2670 
3 2673 2662 2694 
3 2664 2696 2665 
3 2669 2696 2664 
3 2696 2693 2665 
3 2666 2668 2667 
3 2684 2696 2669 
3 2675 2671 2676 
3 2695 2673 2694 
3 2687 2677 2680 
3 2697 2678 2677 
3 2697 2677 2687 
3 2698 2699 2678 
3 2698 2678 2697 
3 2699 2679 2678 
3 2699 2681 2679 
3 2687 2680 2685 
3 2682 2681 2699 
3 2682 2699 2698 
3 2682 2698 2700 
3 2683 2682 2700 
3 2700 2684 2683 
3 2701 2696 2684 
3 2702 2701 2684 
3 2700 2702 2684 
3 2686 2703 2697 
3 2686 2697 2687 
3 2704 2703 2686 
3 2689 2704 2686 
3 2688 2690 2689 
3 2690 2692 2689 
3 2689 2692 2704 
3 2692 2691 2704 
3 2691 2701 2702 
3 2704 2691 2702 
3 2691 2693 2701 
3 2693 2696 2701 
3 2703 2705 2697 
3 2706 2698 2697 
3 2706 2697 2705 
3 2707 2700 2698 
3 2707 2698 2706 
3 2700 2707 2708 
3 2708 2709 2700 
3 2702 2700 2709 
3 2704 2702 2710 
3 2710 2702 2709 
3 2703 2711 2705 
3 2712 2711 2703 
3 2713 2714 2703 
3 2704 2713 2703 
3 2703 2714 2712 
3 2713 2704 2710 
3 2707 2706 2705 
3 2707 2705 2715 
3 2711 2715 2705 
3 2708 2707 2715 
3 2708 2715 2716 
3 2717 2709 2708 
3 2716 2717 2708 
3 2713 2710 2709 
3 2717 2713 2709 
3 2716 2715 2711 
3 2716 2711 2712 
3 2712 2714 2716 
3 2713 2717 2714 
3 2714 2717 2716 
3 2718 2719 2720 
3 2721 2719 2718 
3 2721 2718 2722 
3 2720 2723 2718 
3 2718 2723 2724 
3 2722 2718 2724 
3 2719 2725 2720 
3 2725 2719 2721 
3 2725 2726 2720 
3 2727 2728 2720 
3 2720 2729 2727 
3 2730 2729 2720 
3 2720 2726 2730 
3 2720 2731 2723 
3 2720 2732 2731 
3 2720 2728 2733 
3 2733 2734 2720 
3 2720 2734 2735 
3 2735 2732 2720 
3 2736 2737 2721 
3 2736 2721 2722 
3 2738 2721 2737 
3 2725 2721 2738 
3 2722 2724 2736 
3 2724 2723 2731 
3 2724 2739 2736 
3 2739 2724 2740 
3 2740 2724 2731 
3 2726 2725 2738 
3 2726 2738 2741 
3 2730 2726 2741 
3 2728 2727 2742 
3 2729 2742 2727 
3 2728 2742 2743 
3 2744 2733 2728 
3 2743 2744 2728 
3 2745 2746 2729 
3 2745 2729 2730 
3 2729 2746 2747 
3 2729 2747 2742 
3 2730 2741 2745 
3 2740 2731 2732 
3 2748 2740 2732 
3 2748 2732 2735 
3 2733 2744 2734 
3 2734 2749 2750 
3 2735 2734 2750 
3 2751 2749 2734 
3 2744 2751 2734 
3 2750 2748 2735 
3 2752 2737 2736 
3 2736 2739 2752 
3 2752 2753 2737 
3 2754 2737 2753 
3 2738 2737 2754 
3 2741 2738 2754 
3 2739 2755 2752 
3 2755 2739 2756 
3 2756 2739 2740 
3 2756 2740 2748 
3 2741 2754 2757 
3 2745 2741 2757 
3 2758 2743 2742 
3 2758 2742 2747 
3 2743 2758 2759 
3 2759 2760 2743 
3 2744 2743 2760 
3 2751 2744 2760 
3 2745 2757 2761 
3 2761 2746 2745 
3 2761 2762 2746 
3 2747 2746 2763 
3 2746 2762 2763 
3 2758 2747 2763 
3 2764 2756 2748 
3 2764 2748 2750 
3 2749 2765 2766 
3 2750 2749 2766 
3 2767 2749 2751 
3 2767 2765 2749 
3 2766 2764 2750 
3 2767 2751 2760 
3 2768 2753 2752 
3 2752 2755 2768 
3 2768 2769 2753 
3 2770 2753 2769 
3 2754 2753 2770 
3 2757 2754 2770 
3 2755 2771 2768 
3 2771 2755 2772 
3 2772 2755 2756 
3 2772 2756 2764 
3 2757 2770 2773 
3 2761 2757 2773 
3 2759 2758 2774 
3 2758 2775 2774 
3 2758 2763 2775 
3 2759 2774 2776 
3 2777 2760 2759 
3 2776 2777 2759 
3 2777 2778 2760 
3 2778 2767 2760 
3 2761 2773 2779 
3 2779 2762 2761 
3 2779 2780 2762 
3 2781 2762 2782 
3 2783 2782 2762 
3 2783 2762 2780 
3 2762 2781 2763 
3 2775 2763 2784 
3 2784 2763 2781 
3 2785 2772 2764 
3 2785 2764 2766 
3 2765 2786 2787 
3 2766 2765 2787 
3 2788 2765 2789 
3 2765 2788 2790 
3 2786 2765 2790 
3 2767 2789 2765 
3 2787 2785 2766 
3 2791 2767 2778 
3 2789 2767 2791 
3 2792 2769 2768 
3 2768 2771 2792 
3 2792 2793 2769 
3 2794 2769 2793 
3 2770 2769 2794 
3 2773 2770 2794 
3 2771 2795 2792 
3 2795 2771 2796 
3 2796 2771 2772 
3 2796 2772 2785 
3 2773 2794 2797 
3 2779 2773 2797 
3 2776 2774 2798 
3 2774 2775 2799 
3 2774 2799 2798 
3 2784 2799 2775 
3 2776 2798 2800 
3 2801 2777 2776 
3 2800 2801 2776 
3 2802 2778 2777 
3 2801 2802 2777 
3 2778 2802 2791 
3 2779 2797 2803 
3 2803 2780 2779 
3 2803 2804 2780 
3 2805 2783 2780 
3 2805 2780 2804 
3 2806 2807 2781 
3 2806 2781 2808 
3 2781 2782 2783 
3 2781 2783 2808 
3 2781 2807 2809 
3 2781 2809 2784 
3 2783 2810 2811 
3 2783 2811 2808 
3 2805 2810 2783 
3 2812 2784 2813 
3 2784 2812 2814 
3 2784 2814 2815 
3 2809 2813 2784 
3 2784 2815 2799 
3 2816 2796 2785 
3 2816 2785 2787 
3 2786 2817 2818 
3 2787 2786 2818 
3 2786 2790 2819 
3 2817 2786 2819 
3 2818 2816 2787 
3 2790 2788 2789 
3 2789 2820 2821 
3 2822 2789 2821 
3 2822 2790 2789 
3 2823 2820 2789 
3 2791 2823 2789 
3 2824 2825 2790 
3 2822 2824 2790 
3 2790 2825 2819 
3 2826 2791 2812 
3 2814 2812 2791 
3 2827 2814 2791 
3 2791 2826 2823 
3 2802 2827 2791 
3 2793 2792 2828 
3 2828 2792 2795 
3 2794 2793 2829 
3 2829 2793 2828 
3 2830 2797 2794 
3 2830 2794 2829 
3 2831 2795 2796 
3 2828 2795 2831 
3 2796 2816 2832 
3 2831 2796 2832 
3 2833 2803 2797 
3 2833 2797 2830 
3 2834 2835 2798 
3 2798 2836 2834 
3 2798 2815 2836 
3 2815 2798 2799 
3 2800 2798 2828 
3 2798 2837 2828 
3 2835 2837 2798 
3 2828 2801 2800 
3 2801 2838 2839 
3 2839 2840 2801 
3 2840 2827 2801 
3 2802 2801 2827 
3 2828 2841 2801 
3 2801 2841 2838 
3 2833 2804 2803 
3 2837 2805 2804 
3 2833 2837 2804 
3 2837 2835 2805 
3 2805 2842 2810 
3 2842 2805 2843 
3 2843 2805 2835 
3 2844 2845 2806 
3 2845 2807 2806 
3 2806 2808 2842 
3 2846 2806 2842 
3 2844 2806 2846 
3 2847 2848 2807 
3 2845 2849 2807 
3 2807 2848 2809 
3 2807 2850 2847 
3 2807 2849 2850 
3 2808 2811 2842 
3 2813 2809 2851 
3 2852 2851 2809 
3 2852 2809 2848 
3 2842 2853 2810 
3 2853 2811 2810 
3 2853 2854 2811 
3 2854 2855 2811 
3 2811 2855 2842 
3 2812 2813 2856 
3 2856 2826 2812 
3 2856 2813 2857 
3 2813 2851 2857 
3 2858 2859 2814 
3 2814 2859 2860 
3 2814 2860 2861 
3 2861 2815 2814 
3 2814 2862 2858 
3 2863 2862 2814 
3 2864 2863 2814 
3 2814 2827 2864 
3 2861 2865 2815 
3 2815 2865 2836 
3 2816 2818 2866 
3 2832 2816 2866 
3 2818 2817 2866 
3 2817 2819 2841 
3 2817 2841 2866 
3 2819 2838 2841 
3 2825 2867 2819 
3 2868 2819 2867 
3 2838 2819 2868 
3 2820 2869 2870 
3 2821 2820 2871 
3 2820 2872 2871 
3 2823 2869 2820 
3 2870 2873 2820 
3 2873 2872 2820 
3 2821 2871 2874 
3 2867 2822 2821 
3 2867 2821 2875 
3 2875 2821 2874 
3 2867 2824 2822 
3 2876 2823 2826 
3 2823 2876 2877 
3 2869 2823 2877 
3 2824 2878 2879 
3 2825 2824 2879 
3 2824 2880 2878 
3 2867 2880 2824 
3 2825 2879 2867 
3 2881 2826 2856 
3 2881 2876 2826 
3 2827 2882 2864 
3 2840 2882 2827 
3 2830 2829 2828 
3 2833 2830 2828 
3 2837 2833 2828 
3 2828 2831 2832 
3 2828 2832 2866 
3 2828 2866 2841 
3 2835 2834 2843 
3 2844 2843 2834 
3 2883 2844 2834 
3 2883 2834 2884 
3 2834 2865 2884 
3 2865 2834 2836 
3 2868 2839 2838 
3 2839 2868 2874 
3 2839 2874 2885 
3 2886 2839 2885 
3 2886 2882 2839 
3 2840 2839 2882 
3 2842 2855 2853 
3 2842 2843 2846 
3 2844 2846 2843 
3 2844 2887 2845 
3 2887 2844 2883 
3 2845 2887 2888 
3 2849 2845 2888 
3 2852 2848 2847 
3 2847 2889 2890 
3 2847 2890 2891 
3 2847 2891 2852 
3 2889 2847 2892 
3 2850 2892 2847 
3 2849 2888 2883 
3 2849 2883 2884 
3 2865 2850 2849 
3 2865 2849 2884 
3 2861 2850 2865 
3 2892 2850 2860 
3 2860 2850 2861 
3 2852 2893 2851 
3 2851 2893 2857 
3 2852 2891 2893 
3 2853 2855 2854 
3 2856 2857 2894 
3 2856 2894 2895 
3 2896 2881 2856 
3 2895 2896 2856 
3 2857 2893 2894 
3 2897 2859 2858 
3 2858 2898 2899 
3 2858 2899 2897 
3 2858 2862 2900 
3 2901 2898 2858 
3 2900 2901 2858 
3 2897 2860 2859 
3 2897 2892 2860 
3 2862 2863 2900 
3 2863 2902 2900 
3 2863 2873 2902 
3 2864 2873 2863 
3 2882 2873 2864 
3 2879 2880 2867 
3 2875 2868 2867 
3 2868 2875 2874 
3 2870 2869 2877 
3 2903 2904 2870 
3 2905 2903 2870 
3 2877 2905 2870 
3 2902 2870 2904 
3 2870 2902 2873 
3 2871 2906 2874 
3 2907 2906 2871 
3 2907 2871 2872 
3 2885 2907 2872 
3 2886 2885 2872 
3 2872 2873 2882 
3 2886 2872 2882 
3 2885 2874 2906 
3 2876 2908 2877 
3 2881 2908 2876 
3 2908 2905 2877 
3 2878 2880 2879 
3 2896 2908 2881 
3 2887 2883 2888 
3 2907 2885 2906 
3 2899 2889 2892 
3 2909 2890 2889 
3 2909 2889 2899 
3 2910 2911 2890 
3 2910 2890 2909 
3 2911 2891 2890 
3 2911 2893 2891 
3 2899 2892 2897 
3 2894 2893 2911 
3 2894 2911 2910 
3 2894 2910 2912 
3 2895 2894 2912 
3 2912 2896 2895 
3 2913 2908 2896 
3 2914 2913 2896 
3 2912 2914 2896 
3 2898 2915 2909 
3 2898 2909 2899 
3 2916 2915 2898 
3 2901 2916 2898 
3 2900 2902 2901 
3 2902 2904 2901 
3 2901 2904 2916 
3 2904 2903 2916 
3 2903 2913 2914 
3 2916 2903 2914 
3 2903 2905 2913 
3 2905 2908 2913 
3 2915 2917 2909 
3 2918 2910 2909 
3 2918 2909 2917 
3 2919 2912 2910 
3 2919 2910 2918 
3 2912 2919 2920 
3 2920 2921 2912 
3 2914 2912 2921 
3 2916 2914 2922 
3 2922 2914 2921 
3 2915 2923 2917 
3 2924 2923 2915 
3 2925 2926 2915 
3 2916 2925 2915 
3 2915 2926 2924 
3 2925 2916 2922 
3 2919 2918 2917 
3 2919 2917 2927 
3 2923 2927 2917 
3 2920 2919 2927 
3 2920 2927 2928 
3 2929 2921 2920 
3 2928 2929 2920 
3 2925 2922 2921 
3 2929 2925 2921 
3 2928 2927 2923 
3 2928 2923 2924 
3 2924 2926 2928 
3 2925 2929 2926 
3 2926 2929 2928 
3 2930 2931 2932 
3 2933 2931 2930 
3 2933 2930 2934 
3 2932 2935 2930 
3 2930 2935 2936 
3 2934 2930 2936 
3 2931 2937 2932 
3 2937 2931 2933 
3 2937 2938 2932 
3 2939 2940 2932 
3 2932 2941 2939 
3 2942 2941 2932 
3 2932 2938 2942 
3 2932 2943 2935 
3 2932 2944 2943 
3 2932 2940 2945 
3 2945 2946 2932 
3 2932 2946 2947 
3 2947 2944 2932 
3 2948 2949 2933 
3 2948 2933 2934 
3 2950 2933 2949 
3 2937 2933 2950 
3 2934 2936 2948 
3 2936 2935 2943 
3 2936 2951 2948 
3 2951 2936 2952 
3 2952 2936 2943 
3 2938 2937 2950 
3 2938 2950 2953 
3 2942 2938 2953 
3 2940 2939 2954 
3 2941 2954 2939 
3 2940 2954 2955 
3 2956 2945 2940 
3 2955 2956 2940 
3 2957 2958 2941 
3 2957 2941 2942 
3 2941 2958 2959 
3 2941 2959 2954 
3 2942 2953 2957 
3 2952 2943 2944 
3 2960 2952 2944 
3 2960 2944 2947 
3 2945 2956 2946 
3 2946 2961 2962 
3 2947 2946 2962 
3 2963 2961 2946 
3 2956 2963 2946 
3 2962 2960 2947 
3 2964 2949 2948 
3 2948 2951 2964 
3 2964 2965 2949 
3 2966 2949 2965 
3 2950 2949 2966 
3 2953 2950 2966 
3 2951 2967 2964 
3 2967 2951 2968 
3 2968 2951 2952 
3 2968 2952 2960 
3 2953 2966 2969 
3 2957 2953 2969 
3 2970 2955 2954 
3 2970 2954 2959 
3 2955 2970 2971 
3 2971 2972 2955 
3 2956 2955 2972 
3 2963 2956 2972 
3 2957 2969 2973 
3 2973 2958 2957 
3 2973 2974 2958 
3 2959 2958 2975 
3 2958 2974 2975 
3 2970 2959 2975 
3 2976 2968 2960 
3 2976 2960 2962 
3 2961 2977 2978 
3 2962 2961 2978 
3 2979 2961 2963 
3 2979 2977 2961 
3 2978 2976 2962 
3 2979 2963 2972 
3 2980 2965 2964 
3 2964 2967 2980 
3 2980 2981 2965 
3 2982 2965 2981 
3 2966 2965 2982 
3 2969 2966 2982 
3 2967 2983 2980 
3 2983 2967 2984 
3 2984 2967 2968 
3 2984 2968 2976 
3 2969 2982 2985 
3 2973 2969 2985 
3 2971 2970 2986 
3 2970 2987 2986 
3 2970 2975 2987 
3 2971 2986 2988 
3 2989 2972 2971 
3 2988 2989 2971 
3 2989 2990 2972 
3 2990 2979 2972 
3 2973 2985 2991 
3 2991 2974 2973 
3 2991 2992 2974 
3 2993 2974 2994 
3 2995 2994 2974 
3 2995 2974 2992 
3 2974 2993 2975 
3 2987 2975 2996 
3 2996 2975 2993 
3 2997 2984 2976 
3 2997 2976 2978 
3 2977 2998 2999 
3 2978 2977 2999 
3 3000 2977 3001 
3 2977 3000 3002 
3 2998 2977 3002 
3 2979 3001 2977 
3 2999 2997 2978 
3 3003 2979 2990 
3 3001 2979 3003 
3 3004 2981 2980 
3 2980 2983 3004 
3 3004 3005 2981 
3 3006 2981 3005 
3 2982 2981 3006 
3 2985 2982 3006 
3 2983 3007 3004 
3 3007 2983 3008 
3 3008 2983 2984 
3 3008 2984 2997 
3 2985 3006 3009 
3 2991 2985 3009 
3 2988 2986 3010 
3 2986 2987 3011 
3 2986 3011 3010 
3 2996 3011 2987 
3 2988 3010 3012 
3 3013 2989 2988 
3 3012 3013 2988 
3 3014 2990 2989 
3 3013 3014 2989 
3 2990 3014 3003 
3 2991 3009 3015 
3 3015 2992 2991 
3 3015 3016 2992 
3 3017 2995 2992 
3 3017 2992 3016 
3 3018 3019 2993 
3 3018 2993 3020 
3 2993 2994 2995 
3 2993 2995 3020 
3 2993 3019 3021 
3 2993 3021 2996 
3 2995 3022 3023 
3 2995 3023 3020 
3 3017 3022 2995 
3 3024 2996 3025 
3 2996 3024 3026 
3 2996 3026 3027 
3 3021 3025 2996 
3 2996 3027 3011 
3 3028 3008 2997 
3 3028 2997 2999 
3 2998 3029 3030 
3 2999 2998 3030 
3 2998 3002 3031 
3 3029 2998 3031 
3 3030 3028 2999 
3 3002 3000 3001 
3 3001 3032 3033 
3 3034 3001 3033 
3 3034 3002 3001 
3 3035 3032 3001 
3 3003 3035 3001 
3 3036 3037 3002 
3 3034 3036 3002 
3 3002 3037 3031 
3 3038 3003 3024 
3 3026 3024 3003 
3 3039 3026 3003 
3 3003 3038 3035 
3 3014 3039 3003 
3 3005 3004 3040 
3 3040 3004 3007 
3 3006 3005 3041 
3 3041 3005 3040 
3 3042 3009 3006 
3 3042 3006 3041 
3 3043 3007 3008 
3 3040 3007 3043 
3 3008 3028 3044 
3 3043 3008 3044 
3 3045 3015 3009 
3 3045 3009 3042 
3 3046 3047 3010 
3 3010 3048 3046 
3 3010 3027 3048 
3 3027 3010 3011 
3 3012 3010 3040 
3 3010 3049 3040 
3 3047 3049 3010 
3 3040 3013 3012 
3 3013 3050 3051 
3 3051 3052 3013 
3 3052 3039 3013 
3 3014 3013 3039 
3 3040 3053 3013 
3 3013 3053 3050 
3 3045 3016 3015 
3 3049 3017 3016 
3 3045 3049 3016 
3 3049 3047 3017 
3 3017 3054 3022 
3 3054 3017 3055 
3 3055 3017 3047 
3 3056 3057 3018 
3 3057 3019 3018 
3 3018 3020 3054 
3 3058 3018 3054 
3 3056 3018 3058 
3 3059 3060 3019 
3 3057 3061 3019 
3 3019 3060 3021 
3 3019 3062 3059 
3 3019 3061 3062 
3 3020 3023 3054 
3 3025 3021 3063 
3 3064 3063 3021 
3 3064 3021 3060 
3 3054 3065 3022 
3 3065 3023 3022 
3 3065 3066 3023 
3 3066 3067 3023 
3 3023 3067 3054 
3 3024 3025 3068 
3 3068 3038 3024 
3 3068 3025 3069 
3 3025 3063 3069 
3 3070 3071 3026 
3 3026 3071 3072 
3 3026 3072 3073 
3 3073 3027 3026 
3 3026 3074 3070 
3 3075 3074 3026 
3 3076 3075 3026 
3 3026 3039 3076 
3 3073 3077 3027 
3 3027 3077 3048 
3 3028 3030 3078 
3 3044 3028 3078 
3 3030 3029 3078 
3 3029 3031 3053 
3 3029 3053 3078 
3 3031 3050 3053 
3 3037 3079 3031 
3 3080 3031 3079 
3 3050 3031 3080 
3 3032 3081 3082 
3 3033 3032 3083 
3 3032 3084 3083 
3 3035 3081 3032 
3 3082 3085 3032 
3 3085 3084 3032 
3 3033 3083 3086 
3 3079 3034 3033 
3 3079 3033 3087 
3 3087 3033 3086 
3 3079 3036 3034 
3 3088 3035 3038 
3 3035 3088 3089 
3 3081 3035 3089 
3 3036 3090 3091 
3 3037 3036 3091 
3 3036 3092 3090 
3 3079 3092 3036 
3 3037 3091 3079 
3 3093 3038 3068 
3 3093 3088 3038 
3 3039 3094 3076 
3 3052 3094 3039 
3 3042 3041 3040 
3 3045 3042 3040 
3 3049 3045 3040 
3 3040 3043 3044 
3 3040 3044 3078 
3 3040 3078 3053 
3 3047 3046 3055 
3 3056 3055 3046 
3 3095 3056 3046 
3 3095 3046 3096 
3 3046 3077 3096 
3 3077 3046 3048 
3 3080 3051 3050 
3 3051 3080 3086 
3 3051 3086 3097 
3 3098 3051 3097 
3 3098 3094 3051 
3 3052 3051 3094 
3 3054 3067 3065 
3 3054 3055 3058 
3 3056 3058 3055 
3 3056 3099 3057 
3 3099 3056 3095 
3 3057 3099 3100 
3 3061 3057 3100 
3 3064 3060 3059 
3 3059 3101 3102 
3 3059 3102 3103 
3 3059 3103 3064 
3 3101 3059 3104 
3 3062 3104 3059 
3 3061 3100 3095 
3 3061 3095 3096 
3 3077 3062 3061 
3 3077 3061 3096 
3 3073 3062 3077 
3 3104 3062 3072 
3 3072 3062 3073 
3 3064 3105 3063 
3 3063 3105 3069 
3 3064 3103 3105 
3 3065 3067 3066 
3 3068 3069 3106 
3 3068 3106 3107 
3 3108 3093 3068 
3 3107 3108 3068 
3 3069 3105 3106 
3 3109 3071 3070 
3 3070 3110 3111 
3 3070 3111 3109 
3 3070 3074 3112 
3 3113 3110 3070 
3 3112 3113 3070 
3 3109 3072 3071 
3 3109 3104 3072 
3 3074 3075 3112 
3 3075 3114 3112 
3 3075 3085 3114 
3 3076 3085 3075 
3 3094 3085 3076 
3 3091 3092 3079 
3 3087 3080 3079 
3 3080 3087 3086 
3 3082 3081 3089 
3 3115 3116 3082 
3 3117 3115 3082 
3 3089 3117 3082 
3 3114 3082 3116 
3 3082 3114 3085 
3 3083 3118 3086 
3 3119 3118 3083 
3 3119 3083 3084 
3 3097 3119 3084 
3 3098 3097 3084 
3 3084 3085 3094 
3 3098 3084 3094 
3 3097 3086 3118 
3 3088 3120 3089 
3 3093 3120 3088 
3 3120 3117 3089 
3 3090 3092 3091 
3 3108 3120 3093 
3 3099 3095 3100 
3 3119 3097 3118 
3 3111 3101 3104 
3 3121 3102 3101 
3 3121 3101 3111 
3 3122 3123 3102 
3 3122 3102 3121 
3 3123 3103 3102 
3 3123 3105 3103 
3 3111 3104 3109 
3 3106 3105 3123 
3 3106 3123 3122 
3 3106 3122 3124 
3 3107 3106 3124 
3 3124 3108 3107 
3 3125 3120 3108 
3 3126 3125 3108 
3 3124 3126 3108 
3 3110 3127 3121 
3 3110 3121 3111 
3 3128 3127 3110 
3 3113 3128 3110 
3 3112 3114 3113 
3 3114 3116 3113 
3 3113 3116 3128 
3 3116 3115 3128 
3 3115 3125 3126 
3 3128 3115 3126 
3 3115 3117 3125 
3 3117 3120 3125 
3 3127 3129 3121 
3 3130 3122 3121 
3 3130 3121 3129 
3 3131 3124 3122 
3 3131 3122 3130 
3 3124 3131 3132 
3 3132 3133 3124 
3 3126 3124 3133 
3 3128 3126 3134 
3 3134 3126 3133 
3 3127 3135 3129 
3 3136 3135 3127 
3 3137 3138 3127 
3 3128 3137 3127 
3 3127 3138 3136 
3 3137 3128 3134 
3 3131 3130 3129 
3 3131 3129 3139 
3 3135 3139 3129 
3 3132 3131 3139 
3 3132 3139 3140 
3 3141 3133 3132 
3 3140 3141 3132 
3 3137 3134 3133 
3 3141 3137 3133 
3 3140 3139 3135 
3 3140 3135 3136 
3 3136 3138 3140 
3 3137 3141 3138 
3 3138 3141 3140 
3 3142 3143 3144 
3 3142 3145 3143 
3 3142 3146 3145 
3 3142 3147 3148 
3 3148 3149 3142 
3 3142 3149 3150 
3 3150 3146 3142 
3 3144 3151 3142 
3 3151 3152 3142 
3 3152 3153 3142 
3 3154 3147 3142 
3 3142 3155 3154 
3 3156 3155 3142 
3 3142 3153 3156 
3 3144 3143 3157 
3 3157 3143 3145 
3 3158 3144 3157 
3 3159 3151 3144 
3 3159 3144 3158 
3 3160 3157 3145 
3 3160 3145 3146 
3 3161 3160 3146 
3 3161 3146 3150 
3 3162 3148 3147 
3 3163 3162 3147 
3 3147 3154 3164 
3 3147 3164 3163 
3 3148 3162 3149 
3 3149 3165 3166 
3 3150 3149 3166 
3 3167 3165 3149 
3 3162 3167 3149 
3 3166 3161 3150 
3 3152 3151 3159 
3 3152 3159 3168 
3 3153 3152 3168 
3 3153 3168 3169 
3 3156 3153 3169 
3 3155 3164 3154 
3 3170 3171 3155 
3 3170 3155 3156 
3 3155 3171 3172 
3 3155 3172 3164 
3 3156 3169 3170 
3 3157 3173 3174 
3 3158 3157 3174 
3 3173 3157 3160 
3 3174 3159 3158 
3 3174 3175 3159 
3 3168 3159 3175 
3 3176 3173 3160 
3 3176 3160 3161 
3 3177 3176 3161 
3 3177 3161 3166 
3 3162 3163 3178 
3 3167 3162 3178 
3 3179 3178 3163 
3 3163 3180 3179 
3 3180 3163 3164 
3 3180 3164 3172 
3 3165 3181 3182 
3 3166 3165 3182 
3 3183 3165 3167 
3 3183 3181 3165 
3 3182 3177 3166 
3 3183 3167 3178 
3 3168 3175 3184 
3 3169 3168 3184 
3 3169 3184 3185 
3 3170 3169 3185 
3 3170 3185 3186 
3 3186 3171 3170 
3 3186 3187 3171 
3 3172 3171 3188 
3 3171 3187 3188 
3 3180 3172 3188 
3 3173 3189 3190 
3 3174 3173 3190 
3 3189 3173 3176 
3 3190 3175 3174 
3 3190 3191 3175 
3 3184 3175 3191 
3 3192 3189 3176 
3 3192 3176 3177 
3 3193 3192 3177 
3 3193 3177 3182 
3 3194 3178 3179 
3 3194 3195 3178 
3 3195 3183 3178 
3 3196 3194 3179 
3 3179 3180 3197 
3 3179 3197 3196 
3 3180 3198 3197 
3 3180 3188 3198 
3 3181 3199 3200 
3 3182 3181 3200 
3 3201 3181 3202 
3 3181 3201 3203 
3 3199 3181 3203 
3 3183 3202 3181 
3 3200 3193 3182 
3 3183 3204 3202 
3 3204 3183 3195 
3 3184 3191 3205 
3 3185 3184 3205 
3 3185 3205 3206 
3 3186 3185 3206 
3 3186 3206 3207 
3 3207 3187 3186 
3 3207 3208 3187 
3 3209 3187 3210 
3 3211 3210 3187 
3 3211 3187 3208 
3 3187 3209 3188 
3 3209 3212 3188 
3 3198 3188 3212 
3 3189 3213 3214 
3 3190 3189 3214 
3 3213 3189 3192 
3 3214 3191 3190 
3 3214 3215 3191 
3 3205 3191 3215 
3 3216 3213 3192 
3 3216 3192 3193 
3 3217 3216 3193 
3 3217 3193 3200 
3 3218 3194 3196 
3 3219 3195 3194 
3 3218 3219 3194 
3 3195 3219 3204 
3 3220 3218 3196 
3 3196 3197 3221 
3 3196 3221 3220 
3 3197 3198 3222 
3 3197 3222 3221 
3 3212 3222 3198 
3 3199 3223 3224 
3 3200 3199 3224 
3 3199 3203 3225 
3 3223 3199 3225 
3 3224 3217 3200 
3 3203 3201 3202 
3 3202 3226 3227 
3 3228 3202 3227 
3 3228 3203 3202 
3 3229 3226 3202 
3 3204 3229 3202 
3 3230 3231 3203 
3 3228 3230 3203 
3 3203 3231 3225 
3 3232 3204 3233 
3 3234 3233 3204 
3 3235 3234 3204 
3 3204 3232 3229 
3 3219 3235 3204 
3 3205 3215 3236 
3 3206 3205 3236 
3 3206 3236 3237 
3 3207 3206 3237 
3 3207 3237 3238 
3 3238 3208 3207 
3 3238 3239 3208 
3 3240 3211 3208 
3 3240 3208 3239 
3 3241 3242 3209 
3 3241 3209 3243 
3 3209 3210 3211 
3 3209 3211 3243 
3 3209 3242 3244 
3 3209 3244 3212 
3 3211 3245 3246 
3 3211 3246 3243 
3 3240 3245 3211 
3 3233 3212 3247 
3 3212 3233 3234 
3 3212 3234 3248 
3 3244 3247 3212 
3 3212 3248 3222 
3 3213 3249 3250 
3 3214 3213 3250 
3 3249 3213 3216 
3 3250 3215 3214 
3 3250 3251 3215 
3 3236 3215 3251 
3 3252 3249 3216 
3 3216 3217 3253 
3 3252 3216 3253 
3 3217 3224 3254 
3 3253 3217 3254 
3 3218 3255 3256 
3 3256 3257 3218 
3 3257 3235 3218 
3 3219 3218 3235 
3 3258 3218 3220 
3 3258 3259 3218 
3 3218 3259 3255 
3 3220 3221 3258 
3 3260 3261 3221 
3 3221 3262 3260 
3 3221 3248 3262 
3 3248 3221 3222 
3 3221 3263 3258 
3 3261 3263 3221 
3 3224 3223 3254 
3 3223 3225 3259 
3 3223 3259 3254 
3 3225 3255 3259 
3 3231 3264 3225 
3 3265 3225 3264 
3 3255 3225 3265 
3 3226 3266 3267 
3 3227 3226 3268 
3 3226 3269 3268 
3 3229 3266 3226 
3 3267 3270 3226 
3 3270 3269 3226 
3 3227 3268 3271 
3 3264 3228 3227 
3 3264 3227 3272 
3 3272 3227 3271 
3 3264 3230 3228 
3 3273 3229 3232 
3 3229 3273 3274 
3 3266 3229 3274 
3 3230 3275 3276 
3 3231 3230 3276 
3 3230 3277 3275 
3 3264 3277 3230 
3 3231 3276 3264 
3 3278 3232 3279 
3 3279 3232 3233 
3 3278 3273 3232 
3 3233 3247 3279 
3 3234 3280 3281 
3 3282 3280 3234 
3 3283 3282 3234 
3 3234 3235 3283 
3 3281 3284 3234 
3 3234 3284 3285 
3 3234 3285 3286 
3 3286 3248 3234 
3 3235 3287 3283 
3 3257 3287 3235 
3 3236 3251 3288 
3 3289 3237 3236 
3 3289 3236 3288 
3 3290 3238 3237 
3 3290 3237 3289 
3 3290 3239 3238 
3 3263 3240 3239 
3 3290 3263 3239 
3 3263 3261 3240 
3 3240 3291 3245 
3 3291 3240 3292 
3 3292 3240 3261 
3 3293 3294 3241 
3 3294 3242 3241 
3 3241 3243 3291 
3 3295 3241 3291 
3 3293 3241 3295 
3 3296 3297 3242 
3 3294 3298 3242 
3 3242 3297 3244 
3 3242 3299 3296 
3 3242 3298 3299 
3 3243 3246 3291 
3 3247 3244 3300 
3 3301 3300 3244 
3 3301 3244 3297 
3 3291 3302 3245 
3 3302 3246 3245 
3 3302 3303 3246 
3 3303 3304 3246 
3 3246 3304 3291 
3 3279 3247 3305 
3 3247 3300 3305 
3 3286 3306 3248 
3 3248 3306 3262 
3 3258 3249 3252 
3 3258 3250 3249 
3 3251 3250 3258 
3 3288 3251 3258 
3 3258 3252 3253 
3 3258 3253 3254 
3 3258 3254 3259 
3 3265 3256 3255 
3 3256 3265 3271 
3 3256 3271 3307 
3 3308 3256 3307 
3 3308 3287 3256 
3 3257 3256 3287 
3 3289 3288 3258 
3 3290 3289 3258 
3 3263 3290 3258 
3 3261 3260 3292 
3 3293 3292 3260 
3 3309 3293 3260 
3 3309 3260 3310 
3 3260 3306 3310 
3 3306 3260 3262 
3 3276 3277 3264 
3 3272 3265 3264 
3 3265 3272 3271 
3 3267 3266 3274 
3 3311 3312 3267 
3 3313 3311 3267 
3 3274 3313 3267 
3 3314 3267 3312 
3 3267 3314 3270 
3 3268 3315 3271 
3 3316 3315 3268 
3 3316 3268 3269 
3 3307 3316 3269 
3 3308 3307 3269 
3 3269 3270 3287 
3 3308 3269 3287 
3 3287 3270 3283 
3 3282 3270 3314 
3 3283 3270 3282 
3 3307 3271 3315 
3 3273 3317 3274 
3 3278 3317 3273 
3 3317 3313 3274 
3 3275 3277 3276 
3 3318 3278 3279 
3 3318 3317 3278 
3 3319 3318 3279 
3 3279 3305 3320 
3 3279 3320 3319 
3 3281 3280 3321 
3 3280 3282 3321 
3 3322 3323 3281 
3 3321 3322 3281 
3 3324 3284 3281 
3 3281 3323 3325 
3 3281 3325 3324 
3 3282 3314 3321 
3 3324 3285 3284 
3 3324 3326 3285 
3 3326 3299 3285 
3 3285 3299 3286 
3 3286 3299 3306 
3 3291 3304 3302 
3 3291 3292 3295 
3 3293 3295 3292 
3 3293 3327 3294 
3 3327 3293 3309 
3 3294 3327 3328 
3 3298 3294 3328 
3 3301 3297 3296 
3 3296 3329 3330 
3 3296 3330 3331 
3 3296 3331 3301 
3 3329 3296 3326 
3 3299 3326 3296 
3 3298 3328 3309 
3 3298 3309 3310 
3 3306 3299 3298 
3 3306 3298 3310 
3 3301 3332 3300 
3 3300 3332 3305 
3 3301 3331 3332 
3 3302 3304 3303 
3 3305 3332 3320 
3 3316 3307 3315 
3 3327 3309 3328 
3 3312 3311 3333 
3 3311 3334 3335 
3 3333 3311 3335 
3 3311 3313 3334 
3 3314 3312 3322 
3 3322 3312 3333 
3 3313 3317 3334 
3 3321 3314 3322 
3 3334 3317 3318 
3 3335 3334 3318 
3 3336 3335 3318 
3 3336 3318 3319 
3 3319 3320 3336 
3 3320 3332 3337 
3 3320 3337 3338 
3 3320 3338 3336 
3 3322 3333 3323 
3 3333 3339 3323 
3 3323 3339 3340 
3 3323 3340 3325 
3 3325 3326 3324 
3 3325 3329 3326 
3 3340 3329 3325 
3 3340 3330 3329 
3 3338 3337 3330 
3 3338 3330 3340 
3 3337 3331 3330 
3 3337 3332 3331 
3 3333 3341 3339 
3 3333 3335 3342 
3 3341 3333 3342 
3 3335 3336 3343 
3 3342 3335 3343 
3 3344 3343 3336 
3 3336 3345 3344 
3 3345 3336 3338 
3 3346 3338 3340 
3 3345 3338 3346 
3 3341 3347 3339 
3 3339 3347 3348 
3 3339 3349 3350 
3 3339 3350 3340 
3 3348 3349 3339 
3 3346 3340 3350 
3 3341 3342 3343 
3 3351 3341 3343 
3 3341 3351 3347 
3 3351 3343 3344 
3 3352 3351 3344 
3 3344 3345 3353 
3 3344 3353 3352 
3 3345 3346 3350 
3 3345 3350 3353 
3 3347 3351 3352 
3 3348 3347 3352 
3 3352 3349 3348 
3 3352 3353 3349 
3 3349 3353 3350 
3 3354 3355 3356 
3 3354 3357 3355 
3 3354 3358 3357 
3 3354 3359 3360 
3 3360 3361 3354 
3 3354 3361 3362 
3 3362 3358 3354 
3 3356 3363 3354 
3 3363 3364 3354 
3 3364 3365 3354 
3 3366 3359 3354 
3 3354 3367 3366 
3 3368 3367 3354 
3 3354 3365 3368 
3 3356 3355 3369 
3 3369 3355 3357 
3 3370 3356 3369 
3 3371 3363 3356 
3 3371 3356 3370 
3 3372 3369 3357 
3 3372 3357 3358 
3 3373 3372 3358 
3 3373 3358 3362 
3 3374 3360 3359 
3 3375 3374 3359 
3 3359 3366 3376 
3 3359 3376 3375 
3 3360 3374 3361 
3 3361 3377 3378 
3 3362 3361 3378 
3 3379 3377 3361 
3 3374 3379 3361 
3 3378 3373 3362 
3 3364 3363 3371 
3 3364 3371 3380 
3 3365 3364 3380 
3 3365 3380 3381 
3 3368 3365 3381 
3 3367 3376 3366 
3 3382 3383 3367 
3 3382 3367 3368 
3 3367 3383 3384 
3 3367 3384 3376 
3 3368 3381 3382 
3 3369 3385 3386 
3 3370 3369 3386 
3 3385 3369 3372 
3 3386 3371 3370 
3 3386 3387 3371 
3 3380 3371 3387 
3 3388 3385 3372 
3 3388 3372 3373 
3 3389 3388 3373 
3 3389 3373 3378 
3 3374 3375 3390 
3 3379 3374 3390 
3 3391 3390 3375 
3 3375 3392 3391 
3 3392 3375 3376 
3 3392 3376 3384 
3 3377 3393 3394 
3 3378 3377 3394 
3 3395 3377 3379 
3 3395 3393 3377 
3 3394 3389 3378 
3 3395 3379 3390 
3 3380 3387 3396 
3 3381 3380 3396 
3 3381 3396 3397 
3 3382 3381 3397 
3 3382 3397 3398 
3 3398 3383 3382 
3 3398 3399 3383 
3 3384 3383 3400 
3 3383 3399 3400 
3 3392 3384 3400 
3 3385 3401 3402 
3 3386 3385 3402 
3 3401 3385 3388 
3 3402 3387 3386 
3 3402 3403 3387 
3 3396 3387 3403 
3 3404 3401 3388 
3 3404 3388 3389 
3 3405 3404 3389 
3 3405 3389 3394 
3 3406 3390 3391 
3 3406 3407 3390 
3 3407 3395 3390 
3 3408 3406 3391 
3 3391 3392 3409 
3 3391 3409 3408 
3 3392 3410 3409 
3 3392 3400 3410 
3 3393 3411 3412 
3 3394 3393 3412 
3 3413 3393 3414 
3 3393 3413 3415 
3 3411 3393 3415 
3 3395 3414 3393 
3 3412 3405 3394 
3 3395 3416 3414 
3 3416 3395 3407 
3 3396 3403 3417 
3 3397 3396 3417 
3 3397 3417 3418 
3 3398 3397 3418 
3 3398 3418 3419 
3 3419 3399 3398 
3 3419 3420 3399 
3 3421 3399 3422 
3 3423 3422 3399 
3 3423 3399 3420 
3 3399 3421 3400 
3 3421 3424 3400 
3 3410 3400 3424 
3 3401 3425 3426 
3 3402 3401 3426 
3 3425 3401 3404 
3 3426 3403 3402 
3 3426 3427 3403 
3 3417 3403 3427 
3 3428 3425 3404 
3 3428 3404 3405 
3 3429 3428 3405 
3 3429 3405 3412 
3 3430 3406 3408 
3 3431 3407 3406 
3 3430 3431 3406 
3 3407 3431 3416 
3 3432 3430 3408 
3 3408 3409 3433 
3 3408 3433 3432 
3 3409 3410 3434 
3 3409 3434 3433 
3 3424 3434 3410 
3 3411 3435 3436 
3 3412 3411 3436 
3 3411 3415 3437 
3 3435 3411 3437 
3 3436 3429 3412 
3 3415 3413 3414 
3 3414 3438 3439 
3 3440 3414 3439 
3 3440 3415 3414 
3 3441 3438 3414 
3 3416 3441 3414 
3 3442 3443 3415 
3 3440 3442 3415 
3 3415 3443 3437 
3 3444 3416 3445 
3 3446 3445 3416 
3 3447 3446 3416 
3 3416 3444 3441 
3 3431 3447 3416 
3 3417 3427 3448 
3 3418 3417 3448 
3 3418 3448 3449 
3 3419 3418 3449 
3 3419 3449 3450 
3 3450 3420 3419 
3 3450 3451 3420 
3 3452 3423 3420 
3 3452 3420 3451 
3 3453 3454 3421 
3 3453 3421 3455 
3 3421 3422 3423 
3 3421 3423 3455 
3 3421 3454 3456 
3 3421 3456 3424 
3 3423 3457 3458 
3 3423 3458 3455 
3 3452 3457 3423 
3 3445 3424 3459 
3 3424 3445 3446 
3 3424 3446 3460 
3 3456 3459 3424 
3 3424 3460 3434 
3 3425 3461 3462 
3 3426 3425 3462 
3 3461 3425 3428 
3 3462 3427 3426 
3 3462 3463 3427 
3 3448 3427 3463 
3 3464 3461 3428 
3 3428 3429 3465 
3 3464 3428 3465 
3 3429 3436 3466 
3 3465 3429 3466 
3 3430 3467 3468 
3 3468 3469 3430 
3 3469 3447 3430 
3 3431 3430 3447 
3 3470 3430 3432 
3 3470 3471 3430 
3 3430 3471 3467 
3 3432 3433 3470 
3 3472 3473 3433 
3 3433 3474 3472 
3 3433 3460 3474 
3 3460 3433 3434 
3 3433 3475 3470 
3 3473 3475 3433 
3 3436 3435 3466 
3 3435 3437 3471 
3 3435 3471 3466 
3 3437 3467 3471 
3 3443 3476 3437 
3 3477 3437 3476 
3 3467 3437 3477 
3 3438 3478 3479 
3 3439 3438 3480 
3 3438 3481 3480 
3 3441 3478 3438 
3 3479 3482 3438 
3 3482 3481 3438 
3 3439 3480 3483 
3 3476 3440 3439 
3 3476 3439 3484 
3 3484 3439 3483 
3 3476 3442 3440 
3 3485 3441 3444 
3 3441 3485 3486 
3 3478 3441 3486 
3 3442 3487 3488 
3 3443 3442 3488 
3 3442 3489 3487 
3 3476 3489 3442 
3 3443 3488 3476 
3 3490 3444 3491 
3 3491 3444 3445 
3 3490 3485 3444 
3 3445 3459 3491 
3 3446 3492 3493 
3 3494 3492 3446 
3 3495 3494 3446 
3 3446 3447 3495 
3 3493 3496 3446 
3 3446 3496 3497 
3 3446 3497 3498 
3 3498 3460 3446 
3 3447 3499 3495 
3 3469 3499 3447 
3 3448 3463 3500 
3 3501 3449 3448 
3 3501 3448 3500 
3 3502 3450 3449 
3 3502 3449 3501 
3 3502 3451 3450 
3 3475 3452 3451 
3 3502 3475 3451 
3 3475 3473 3452 
3 3452 3503 3457 
3 3503 3452 3504 
3 3504 3452 3473 
3 3505 3506 3453 
3 3506 3454 3453 
3 3453 3455 3503 
3 3507 3453 3503 
3 3505 3453 3507 
3 3508 3509 3454 
3 3506 3510 3454 
3 3454 3509 3456 
3 3454 3511 3508 
3 3454 3510 3511 
3 3455 3458 3503 
3 3459 3456 3512 
3 3513 3512 3456 
3 3513 3456 3509 
3 3503 3514 3457 
3 3514 3458 3457 
3 3514 3515 3458 
3 3515 3516 3458 
3 3458 3516 3503 
3 3491 3459 3517 
3 3459 3512 3517 
3 3498 3518 3460 
3 3460 3518 3474 
3 3470 3461 3464 
3 3470 3462 3461 
3 3463 3462 3470 
3 3500 3463 3470 
3 3470 3464 3465 
3 3470 3465 3466 
3 3470 3466 3471 
3 3477 3468 3467 
3 3468 3477 3483 
3 3468 3483 3519 
3 3520 3468 3519 
3 3520 3499 3468 
3 3469 3468 3499 
3 3501 3500 3470 
3 3502 3501 3470 
3 3475 3502 3470 
3 3473 3472 3504 
3 3505 3504 3472 
3 3521 3505 3472 
3 3521 3472 3522 
3 3472 3518 3522 
3 3518 3472 3474 
3 3488 3489 3476 
3 3484 3477 3476 
3 3477 3484 3483 
3 3479 3478 3486 
3 3523 3524 3479 
3 3525 3523 3479 
3 3486 3525 3479 
3 3526 3479 3524 
3 3479 3526 3482 
3 3480 3527 3483 
3 3528 3527 3480 
3 3528 3480 3481 
3 3519 3528 3481 
3 3520 3519 3481 
3 3481 3482 3499 
3 3520 3481 3499 
3 3499 3482 3495 
3 3494 3482 3526 
3 3495 3482 3494 
3 3519 3483 3527 
3 3485 3529 3486 
3 3490 3529 3485 
3 3529 3525 3486 
3 3487 3489 3488 
3 3530 3490 3491 
3 3530 3529 3490 
3 3531 3530 3491 
3 3491 3517 3532 
3 3491 3532 3531 
3 3493 3492 3533 
3 3492 3494 3533 
3 3534 3535 3493 
3 3533 3534 3493 
3 3536 3496 3493 
3 3493 3535 3537 
3 3493 3537 3536 
3 3494 3526 3533 
3 3536 3497 3496 
3 3536 3538 3497 
3 3538 3511 3497 
3 3497 3511 3498 
3 3498 3511 3518 
3 3503 3516 3514 
3 3503 3504 3507 
3 3505 3507 3504 
3 3505 3539 3506 
3 3539 3505 3521 
3 3506 3539 3540 
3 3510 3506 3540 
3 3513 3509 3508 
3 3508 3541 3542 
3 3508 3542 3543 
3 3508 3543 3513 
3 3541 3508 3538 
3 3511 3538 3508 
3 3510 3540 3521 
3 3510 3521 3522 
3 3518 3511 3510 
3 3518 3510 3522 
3 3513 3544 3512 
3 3512 3544 3517 
3 3513 3543 3544 
3 3514 3516 3515 
3 3517 3544 3532 
3 3528 3519 3527 
3 3539 3521 3540 
3 3524 3523 3545 
3 3523 3546 3547 
3 3545 3523 3547 
3 3523 3525 3546 
3 3526 3524 3534 
3 3534 3524 3545 
3 3525 3529 3546 
3 3533 3526 3534 
3 3546 3529 3530 
3 3547 3546 3530 
3 3548 3547 3530 
3 3548 3530 3531 
3 3531 3532 3548 
3 3532 3544 3549 
3 3532 3549 3550 
3 3532 3550 3548 
3 3534 3545 3535 
3 3545 3551 3535 
3 3535 3551 3552 
3 3535 3552 3537 
3 3537 3538 3536 
3 3537 3541 3538 
3 3552 3541 3537 
3 3552 3542 3541 
3 3550 3549 3542 
3 3550 3542 3552 
3 3549 3543 3542 
3 3549 3544 3543 
3 3545 3553 3551 
3 3545 3547 3554 
3 3553 3545 3554 
3 3547 3548 3555 
3 3554 3547 3555 
3 3556 3555 3548 
3 3548 3557 3556 
3 3557 3548 3550 
3 3558 3550 3552 
3 3557 3550 3558 
3 3553 3559 3551 
3 3551 3559 3560 
3 3551 3561 3562 
3 3551 3562 3552 
3 3560 3561 3551 
3 3558 3552 3562 
3 3553 3554 3555 
3 3563 3553 3555 
3 3553 3563 3559 
3 3563 3555 3556 
3 3564 3563 3556 
3 3556 3557 3565 
3 3556 3565 3564 
3 3557 3558 3562 
3 3557 3562 3565 
3 3559 3563 3564 
3 3560 3559 3564 
3 3564 3561 3560 
3 3564 3565 3561 
3 3561 3565 3562 
3 3566 3567 3568 
3 3566 3569 3567 
3 3566 3570 3569 
3 3566 3571 3572 
3 3572 3573 3566 
3 3566 3573 3574 
3 3574 3570 3566 
3 3568 3575 3566 
3 3575 3576 3566 
3 3576 3577 3566 
3 3578 3571 3566 
3 3566 3579 3578 
3 3580 3579 3566 
3 3566 3577 3580 
3 3568 3567 3581 
3 3581 3567 3569 
3 3582 3568 3581 
3 3583 3575 3568 
3 3583 3568 3582 
3 3584 3581 3569 
3 3584 3569 3570 
3 3585 3584 3570 
3 3585 3570 3574 
3 3586 3572 3571 
3 3587 3586 3571 
3 3571 3578 3588 
3 3571 3588 3587 
3 3572 3586 3573 
3 3573 3589 3590 
3 3574 3573 3590 
3 3591 3589 3573 
3 3586 3591 3573 
3 3590 3585 3574 
3 3576 3575 3583 
3 3576 3583 3592 
3 3577 3576 3592 
3 3577 3592 3593 
3 3580 3577 3593 
3 3579 3588 3578 
3 3594 3595 3579 
3 3594 3579 3580 
3 3579 3595 3596 
3 3579 3596 3588 
3 3580 3593 3594 
3 3581 3597 3598 
3 3582 3581 3598 
3 3597 3581 3584 
3 3598 3583 3582 
3 3598 3599 3583 
3 3592 3583 3599 
3 3600 3597 3584 
3 3600 3584 3585 
3 3601 3600 3585 
3 3601 3585 3590 
3 3586 3587 3602 
3 3591 3586 3602 
3 3603 3602 3587 
3 3587 3604 3603 
3 3604 3587 3588 
3 3604 3588 3596 
3 3589 3605 3606 
3 3590 3589 3606 
3 3607 3589 3591 
3 3607 3605 3589 
3 3606 3601 3590 
3 3607 3591 3602 
3 3592 3599 3608 
3 3593 3592 3608 
3 3593 3608 3609 
3 3594 3593 3609 
3 3594 3609 3610 
3 3610 3595 3594 
3 3610 3611 3595 
3 3596 3595 3612 
3 3595 3611 3612 
3 3604 3596 3612 
3 3597 3613 3614 
3 3598 3597 3614 
3 3613 3597 3600 
3 3614 3599 3598 
3 3614 3615 3599 
3 3608 3599 3615 
3 3616 3613 3600 
3 3616 3600 3601 
3 3617 3616 3601 
3 3617 3601 3606 
3 3618 3602 3603 
3 3618 3619 3602 
3 3619 3607 3602 
3 3620 3618 3603 
3 3603 3604 3621 
3 3603 3621 3620 
3 3604 3622 3621 
3 3604 3612 3622 
3 3605 3623 3624 
3 3606 3605 3624 
3 3625 3605 3626 
3 3605 3625 3627 
3 3623 3605 3627 
3 3607 3626 3605 
3 3624 3617 3606 
3 3607 3628 3626 
3 3628 3607 3619 
3 3608 3615 3629 
3 3609 3608 3629 
3 3609 3629 3630 
3 3610 3609 3630 
3 3610 3630 3631 
3 3631 3611 3610 
3 3631 3632 3611 
3 3633 3611 3634 
3 3635 3634 3611 
3 3635 3611 3632 
3 3611 3633 3612 
3 3633 3636 3612 
3 3622 3612 3636 
3 3613 3637 3638 
3 3614 3613 3638 
3 3637 3613 3616 
3 3638 3615 3614 
3 3638 3639 3615 
3 3629 3615 3639 
3 3640 3637 3616 
3 3640 3616 3617 
3 3641 3640 3617 
3 3641 3617 3624 
3 3642 3618 3620 
3 3643 3619 3618 
3 3642 3643 3618 
3 3619 3643 3628 
3 3644 3642 3620 
3 3620 3621 3645 
3 3620 3645 3644 
3 3621 3622 3646 
3 3621 3646 3645 
3 3636 3646 3622 
3 3623 3647 3648 
3 3624 3623 3648 
3 3623 3627 3649 
3 3647 3623 3649 
3 3648 3641 3624 
3 3627 3625 3626 
3 3626 3650 3651 
3 3652 3626 3651 
3 3652 3627 3626 
3 3653 3650 3626 
3 3628 3653 3626 
3 3654 3655 3627 
3 3652 3654 3627 
3 3627 3655 3649 
3 3656 3628 3657 
3 3658 3657 3628 
3 3659 3658 3628 
3 3628 3656 3653 
3 3643 3659 3628 
3 3629 3639 3660 
3 3630 3629 3660 
3 3630 3660 3661 
3 3631 3630 3661 
3 3631 3661 3662 
3 3662 3632 3631 
3 3662 3663 3632 
3 3664 3635 3632 
3 3664 3632 3663 
3 3665 3666 3633 
3 3665 3633 3667 
3 3633 3634 3635 
3 3633 3635 3667 
3 3633 3666 3668 
3 3633 3668 3636 
3 3635 3669 3670 
3 3635 3670 3667 
3 3664 3669 3635 
3 3657 3636 3671 
3 3636 3657 3658 
3 3636 3658 3672 
3 3668 3671 3636 
3 3636 3672 3646 
3 3637 3673 3674 
3 3638 3637 3674 
3 3673 3637 3640 
3 3674 3639 3638 
3 3674 3675 3639 
3 3660 3639 3675 
3 3676 3673 3640 
3 3640 3641 3677 
3 3676 3640 3677 
3 3641 3648 3678 
3 3677 3641 3678 
3 3642 3679 3680 
3 3680 3681 3642 
3 3681 3659 3642 
3 3643 3642 3659 
3 3682 3642 3644 
3 3682 3683 3642 
3 3642 3683 3679 
3 3644 3645 3682 
3 3684 3685 3645 
3 3645 3686 3684 
3 3645 3672 3686 
3 3672 3645 3646 
3 3645 3687 3682 
3 3685 3687 3645 
3 3648 3647 3678 
3 3647 3649 3683 
3 3647 3683 3678 
3 3649 3679 3683 
3 3655 3688 3649 
3 3689 3649 3688 
3 3679 3649 3689 
3 3650 3690 3691 
3 3651 3650 3692 
3 3650 3693 3692 
3 3653 3690 3650 
3 3691 3694 3650 
3 3694 3693 3650 
3 3651 3692 3695 
3 3688 3652 3651 
3 3688 3651 3696 
3 3696 3651 3695 
3 3688 3654 3652 
3 3697 3653 3656 
3 3653 3697 3698 
3 3690 3653 3698 
3 3654 3699 3700 
3 3655 3654 3700 
3 3654 3701 3699 
3 3688 3701 3654 
3 3655 3700 3688 
3 3702 3656 3703 
3 3703 3656 3657 
3 3702 3697 3656 
3 3657 3671 3703 
3 3658 3704 3705 
3 3706 3704 3658 
3 3707 3706 3658 
3 3658 3659 3707 
3 3705 3708 3658 
3 3658 3708 3709 
3 3658 3709 3710 
3 3710 3672 3658 
3 3659 3711 3707 
3 3681 3711 3659 
3 3660 3675 3712 
3 3713 3661 3660 
3 3713 3660 3712 
3 3714 3662 3661 
3 3714 3661 3713 
3 3714 3663 3662 
3 3687 3664 3663 
3 3714 3687 3663 
3 3687 3685 3664 
3 3664 3715 3669 
3 3715 3664 3716 
3 3716 3664 3685 
3 3717 3718 3665 
3 3718 3666 3665 
3 3665 3667 3715 
3 3719 3665 3715 
3 3717 3665 3719 
3 3720 3721 3666 
3 3718 3722 3666 
3 3666 3721 3668 
3 3666 3723 3720 
3 3666 3722 3723 
3 3667 3670 3715 
3 3671 3668 3724 
3 3725 3724 3668 
3 3725 3668 3721 
3 3715 3726 3669 
3 3726 3670 3669 
3 3726 3727 3670 
3 3727 3728 3670 
3 3670 3728 3715 
3 3703 3671 3729 
3 3671 3724 3729 
3 3710 3730 3672 
3 3672 3730 3686 
3 3682 3673 3676 
3 3682 3674 3673 
3 3675 3674 3682 
3 3712 3675 3682 
3 3682 3676 3677 
3 3682 3677 3678 
3 3682 3678 3683 
3 3689 3680 3679 
3 3680 3689 3695 
3 3680 3695 3731 
3 3732 3680 3731 
3 3732 3711 3680 
3 3681 3680 3711 
3 3713 3712 3682 
3 3714 3713 3682 
3 3687 3714 3682 
3 3685 3684 3716 
3 3717 3716 3684 
3 3733 3717 3684 
3 3733 3684 3734 
3 3684 3730 3734 
3 3730 3684 3686 
3 3700 3701 3688 
3 3696 3689 3688 
3 3689 3696 3695 
3 3691 3690 3698 
3 3735 3736 3691 
3 3737 3735 3691 
3 3698 3737 3691 
3 3738 3691 3736 
3 3691 3738 3694 
3 3692 3739 3695 
3 3740 3739 3692 
3 3740 3692 3693 
3 3731 3740 3693 
3 3732 3731 3693 
3 3693 3694 3711 
3 3732 3693 3711 
3 3711 3694 3707 
3 3706 3694 3738 
3 3707 3694 3706 
3 3731 3695 3739 
3 3697 3741 3698 
3 3702 3741 3697 
3 3741 3737 3698 
3 3699 3701 3700 
3 3742 3702 3703 
3 3742 3741 3702 
3 3743 3742 3703 
3 3703 3729 3744 
3 3703 3744 3743 
3 3705 3704 3745 
3 3704 3706 3745 
3 3746 3747 3705 
3 3745 3746 3705 
3 3748 3708 3705 
3 3705 3747 3749 
3 3705 3749 3748 
3 3706 3738 3745 
3 3748 3709 3708 
3 3748 3750 3709 
3 3750 3723 3709 
3 3709 3723 3710 
3 3710 3723 3730 
3 3715 3728 3726 
3 3715 3716 3719 
3 3717 3719 3716 
3 3717 3751 3718 
3 3751 3717 3733 
3 3718 3751 3752 
3 3722 3718 3752 
3 3725 3721 3720 
3 3720 3753 3754 
3 3720 3754 3755 
3 3720 3755 3725 
3 3753 3720 3750 
3 3723 3750 3720 
3 3722 3752 3733 
3 3722 3733 3734 
3 3730 3723 3722 
3 3730 3722 3734 
3 3725 3756 3724 
3 3724 3756 3729 
3 3725 3755 3756 
3 3726 3728 3727 
3 3729 3756 3744 
3 3740 3731 3739 
3 3751 3733 3752 
3 3736 3735 3757 
3 3735 3758 3759 
3 3757 3735 3759 
3 3735 3737 3758 
3 3738 3736 3746 
3 3746 3736 3757 
3 3737 3741 3758 
3 3745 3738 3746 
