NORM_ASCII
2767 5442
  -0.1016150   -0.1616670   -0.0368690    0.0310956    0.9046996   -0.4249139
  -0.0941190   -0.1608710   -0.0203690   -0.5126395    0.0857147    0.8543148
  -0.1010560   -0.1872250   -0.0821730   -0.7282634    0.2666655   -0.6312859
  -0.0999060   -0.2008900   -0.0775630   -0.4159002   -0.9020425    0.1155264
  -0.1079600   -0.1814540   -0.0685950   -0.9687795    0.1572327   -0.1916875
  -0.1006530   -0.1942160   -0.0687350    0.9518033   -0.1022932    0.2891479
  -0.1015290   -0.1898550   -0.0624990    0.9952858   -0.0477942    0.0843916
  -0.1073880   -0.1732580   -0.0556730   -0.8518306    0.4710341   -0.2291538
  -0.1021320   -0.1748400   -0.0516300    0.8781217    0.3412019   -0.3353857
  -0.0808770   -0.1662940   -0.0149490    0.1523402   -0.8290192    0.5380703
  -0.0789020   -0.1615950   -0.0160180    0.7722557    0.1338032    0.6210619
  -0.0810880   -0.1589930   -0.0156700    0.3034153    0.8937327    0.3304256
  -0.1044170   -0.1694320   -0.0503370    0.2763264    0.8210373   -0.4995412
  -0.1039050   -0.1852060   -0.0769110    0.5921626    0.8051573   -0.0326372
  -0.0925670   -0.1921980   -0.0884090    0.5739474    0.8172109    0.0524478
  -0.0906690   -0.1951190   -0.0932530   -0.4583155    0.4402790   -0.7720760
  -0.0924080   -0.2020570   -0.0809820    0.6945263   -0.2213855    0.6845594
  -0.0898240   -0.2066890   -0.0891020   -0.6831589   -0.6805708   -0.2647968
  -0.1057890   -0.1774090   -0.0632360    0.2096745    0.8601715   -0.4649103
  -0.0988180   -0.1969230   -0.0752890    0.9187040    0.3064469    0.2491451
  -0.1029660   -0.1815130   -0.0649820    0.9246912    0.3666850   -0.1024120
  -0.0898960   -0.1950660   -0.0898510    0.7570696    0.4599324    0.4640128
  -0.0991390   -0.1880880   -0.0781060    0.8285631    0.5438059    0.1332606
  -0.0783380   -0.2020740   -0.1002640    0.6940182    0.4359590    0.5729558
  -0.0808880   -0.1996870   -0.0993940    0.5046335    0.8627386    0.0320481
  -0.0782500   -0.2022310   -0.1034730   -0.3706553    0.3940322   -0.8410430
  -0.0840300   -0.2109910   -0.0915720   -0.0606428   -0.8621870    0.5029474
  -0.0895090   -0.2032680   -0.0865690    0.7949888    0.2979835    0.5283925
  -0.0782560   -0.2138190   -0.0990300   -0.6617925   -0.5165873   -0.5432939
  -0.0782790   -0.2096900   -0.0964570    0.6610651    0.1893161    0.7260526
  -0.0652900   -0.2170480   -0.1045300    0.5468593    0.2597462    0.7959126
  -0.0650840   -0.2100640   -0.1086130    0.5824853    0.4125672    0.7003564
  -0.0669120   -0.2074180   -0.1085020    0.5123109    0.8328912    0.2093558
  -0.0637390   -0.2099860   -0.1112170   -0.2666775    0.2932835   -0.9180784
  -0.0648890   -0.2211270   -0.1071380   -0.5786862   -0.5591776   -0.5936688
  -0.0709840   -0.2191760   -0.1006040    0.0192652   -0.7438102    0.6681132
  -0.0554720   -0.2262660   -0.1078230   -0.0698353   -0.6920098    0.7185023
  -0.0505940   -0.2247290   -0.1101230    0.4428679    0.3114752    0.8407445
  -0.0501250   -0.2182090   -0.1144760    0.4327827    0.2901485    0.8535297
  -0.0507510   -0.2153010   -0.1143150    0.4982973    0.8021531    0.3290141
  -0.0481400   -0.2184640   -0.1165300   -0.1838927    0.1916527   -0.9640813
  -0.0496250   -0.2287640   -0.1124010   -0.5001451   -0.6556167   -0.5657046
  -0.0342220   -0.2367680   -0.1164470   -0.4576004   -0.6374575   -0.6198788
  -0.0395460   -0.2350650   -0.1122280   -0.1596145   -0.6906855    0.7053204
  -0.0355510   -0.2327960   -0.1142770    0.3625200    0.3239824    0.8738505
  -0.0342460   -0.2262110   -0.1188100    0.2892180    0.1963726    0.9369049
  -0.0344550   -0.2242060   -0.1185140    0.4787907    0.8323118    0.2793144
  -0.0327190   -0.2277770   -0.1207010   -0.1102475    0.1566316   -0.9814846
  -0.0161760   -0.2363300   -0.1228850   -0.0027866    0.1995056   -0.9798927
  -0.0182860   -0.2446460   -0.1194580   -0.4091593   -0.6398554   -0.6505180
  -0.0229250   -0.2432340   -0.1159540   -0.2307661   -0.6739936    0.7017689
  -0.0199060   -0.2407520   -0.1166790    0.2538149    0.2947245    0.9212576
  -0.0178740   -0.2344740   -0.1209390    0.2266821    0.2625424    0.9379162
  -0.0180850   -0.2335260   -0.1210590    0.4605696    0.8699905    0.1760460
  -0.0014310   -0.2426630   -0.1222010    0.4474281    0.8879472    0.1065738
  -0.0000030   -0.2454860   -0.1242260    0.0547299    0.1610395   -0.9854293
  -0.0022880   -0.2529410   -0.1207750   -0.3523638   -0.7225447   -0.5947848
  -0.0059230   -0.2515060   -0.1172680   -0.2685132   -0.6120240    0.7438597
  -0.0043640   -0.2490710   -0.1178850    0.1593996    0.3088242    0.9376670
  -0.0024900   -0.2439090   -0.1210260    0.2330853    0.4438896    0.8652359
   0.0140940   -0.2514370   -0.1213640    0.1767971    0.5799875    0.7952089
   0.0157050   -0.2508040   -0.1220980    0.3989677    0.9112275   -0.1024168
   0.0166910   -0.2533610   -0.1234510    0.1273550    0.0816225   -0.9884930
   0.0131800   -0.2606820   -0.1190370   -0.2882959   -0.8159788   -0.5010629
   0.0106450   -0.2596620   -0.1165300   -0.3128843   -0.5410421    0.7806259
   0.0111960   -0.2564390   -0.1168350    0.0596852    0.4035332    0.9130162
   0.0291850   -0.2629940   -0.1137470    0.0360391    0.5665790    0.8232190
   0.0324150   -0.2585930   -0.1179580    0.1841225    0.8106438    0.5558376
   0.0348090   -0.2592060   -0.1195760    0.3323536    0.8940975   -0.3002177
   0.0357340   -0.2610490   -0.1209330    0.1187434   -0.0096058   -0.9928785
   0.0306860   -0.2674560   -0.1149070   -0.2350478   -0.9324941   -0.2742394
   0.0295710   -0.2658550   -0.1122960   -0.2308793   -0.3669078    0.9011511
   0.0449230   -0.2688150   -0.1100950    0.4300311    0.0074780    0.9027831
   0.0435650   -0.2659230   -0.1118550    0.1652659    0.6531873    0.7389408
   0.0472160   -0.2627210   -0.1164930    0.2273300    0.8635238    0.4501641
   0.0507350   -0.2628090   -0.1178810    0.5629059    0.8088309    0.1700868
   0.0507380   -0.2654230   -0.1191370    0.6286210   -0.5680167   -0.5312181
   0.0456740   -0.2703430   -0.1133850    0.1075804   -0.9794623    0.1705286
  -0.0192310   -0.2670830    0.1060290   -0.1417133   -0.6377972    0.7570549
  -0.0174750   -0.2687730    0.1037970    0.2770114   -0.8599758    0.4286098
  -0.0171150   -0.2643450    0.1077930    0.6828889   -0.0570178    0.7282937
  -0.0244830   -0.2566470    0.1099220    0.3456261    0.3418954    0.8738708
  -0.0286210   -0.2620870    0.1066280   -0.2753473   -0.5535608    0.7859735
  -0.0153910   -0.2641360    0.1040510    0.9685274    0.1566311   -0.1934460
  -0.0190490   -0.2687250    0.1003830    0.1359415   -0.3961669   -0.9080593
  -0.0276990   -0.2668240    0.1036870   -0.3795869   -0.8652784    0.3274249
  -0.0230430   -0.2573980    0.1068750    0.4557275    0.7690620   -0.4481697
  -0.0326260   -0.2519880    0.1081110    0.4514353    0.7520706   -0.4802040
  -0.0341010   -0.2513390    0.1102190    0.1982667    0.4240718    0.8836591
  -0.0379060   -0.2568620    0.1058660   -0.3353720   -0.4651378    0.8192512
  -0.0285630   -0.2658230    0.1027790   -0.2216123   -0.2458829   -0.9436258
  -0.0370170   -0.2611990    0.1035960   -0.5341300   -0.8081544    0.2481768
  -0.0420310   -0.2464130    0.1064660    0.5075727    0.7252040   -0.4652409
  -0.0370510   -0.2603560    0.1021790   -0.1451129   -0.3299527   -0.9327773
  -0.0435120   -0.2457370    0.1090780    0.1483032    0.3977097    0.9054464
  -0.0467600   -0.2509370    0.1054830   -0.3663307   -0.4255439    0.8274746
  -0.0457800   -0.2548440    0.1036480   -0.5490158   -0.7176574    0.4284267
  -0.0511050   -0.2401200    0.1054620    0.5817082    0.7389467   -0.3399608
  -0.0457890   -0.2552400    0.1015360   -0.2247316   -0.4851162   -0.8450787
  -0.0527580   -0.2399410    0.1074600    0.0391629    0.4407696    0.8967655
  -0.0553380   -0.2446720    0.1043730   -0.4746584   -0.3824370    0.7927429
  -0.0543500   -0.2481330    0.1028530   -0.6113667   -0.6887897    0.3896145
  -0.0601550   -0.2347740    0.1015260    0.5967191    0.7237719   -0.3465263
  -0.0533560   -0.2487740    0.0992270    0.0021652   -0.5433766   -0.8394863
  -0.0616330   -0.2341780    0.1039580    0.0031998    0.5918431    0.8060468
  -0.0634830   -0.2381500    0.1016440   -0.5925510   -0.3427742    0.7289645
  -0.0630180   -0.2433660    0.0978310   -0.6000148   -0.6890074    0.4065108
  -0.0690370   -0.2297150    0.0964480    0.6954251    0.5991577   -0.3967291
  -0.0620410   -0.2446240    0.0952080    0.0805007   -0.5939759   -0.8004450
  -0.0700220   -0.2284770    0.0988070   -0.0278489    0.6364894    0.7707825
  -0.0719740   -0.2331690    0.0966960   -0.6107290   -0.2626286    0.7470183
  -0.0717270   -0.2376190    0.0942770   -0.6518678   -0.6614546    0.3708721
  -0.0769460   -0.2231260    0.0914960    0.7066516    0.6850842   -0.1769273
  -0.0756330   -0.2319370    0.0859500    0.3782118   -0.3485611   -0.8575902
  -0.0692870   -0.2388340    0.0903050    0.0056117   -0.6543293   -0.7561889
  -0.0782190   -0.2229900    0.0929590   -0.1148439    0.5981138    0.7931398
  -0.0799800   -0.2273630    0.0917410   -0.6972948   -0.1897178    0.6912215
  -0.0801330   -0.2322610    0.0890480   -0.7163571   -0.6853673    0.1307830
  -0.0840970   -0.2167660    0.0847240    0.7305965    0.6827110   -0.0115947
  -0.0820820   -0.2265680    0.0791630    0.4797133   -0.4344500   -0.7623177
  -0.0868440   -0.2260910    0.0820140   -0.7190191   -0.6938650   -0.0395328
  -0.0855560   -0.2166860    0.0867330   -0.3166902    0.5693170    0.7586735
  -0.0865560   -0.2217370    0.0842740   -0.8292780   -0.2043675    0.5201269
  -0.0898910   -0.2104570    0.0762760    0.6517197    0.7389969    0.1707193
  -0.0866260   -0.2204100    0.0711800    0.6254650   -0.4875494   -0.6091709
  -0.0907940   -0.2196090    0.0725810   -0.6815417   -0.6968652   -0.2233378
  -0.0921310   -0.2160560    0.0759040   -0.9440893   -0.2300701    0.2361424
  -0.0924620   -0.2116490    0.0783690   -0.6607416    0.4760866    0.5803120
  -0.0923480   -0.2046960    0.0652530    0.6405297    0.6943968    0.3279251
  -0.0896560   -0.2151100    0.0612730    0.7310840   -0.5395186   -0.4176552
  -0.0922750   -0.2145310    0.0611440   -0.6282245   -0.7129787   -0.3114408
  -0.0949540   -0.2095890    0.0662240   -0.9798840   -0.1966663    0.0339075
  -0.0944510   -0.2062060    0.0672300   -0.7496472    0.5412585    0.3808783
  -0.0926410   -0.1991880    0.0536710    0.2866634    0.8529438    0.4362465
  -0.0892620   -0.2094200    0.0511190    0.7162635   -0.6300219   -0.3000649
  -0.0888760   -0.2035420    0.0410930    0.9619740   -0.2689776   -0.0475082
  -0.0922980   -0.2086490    0.0501860   -0.5547792   -0.7312276   -0.3968957
  -0.0948660   -0.2050750    0.0544510   -0.9754133   -0.1994734   -0.0936976
  -0.0955410   -0.2011910    0.0558180   -0.7877648    0.5476539    0.2819608
  -0.0912590   -0.1933300    0.0424920    0.5256965    0.6432930    0.5566124
  -0.0904490   -0.2037050    0.0389210   -0.2933590   -0.7884194   -0.5406804
  -0.0878820   -0.1966020    0.0293660   -0.2998805   -0.6914513   -0.6572418
  -0.0845980   -0.1979100    0.0322050    0.7768564   -0.6189482    0.1157462
  -0.0956180   -0.1985290    0.0446010   -0.9777231   -0.0771744   -0.1951965
  -0.0944220   -0.1947460    0.0450920   -0.6547478    0.6809046    0.3281376
  -0.0875180   -0.1869340    0.0324540    0.3915921    0.6846607    0.6147319
  -0.0919150   -0.1942040    0.0334640   -0.8831131   -0.0022955   -0.4691545
  -0.0858580   -0.1889500    0.0249400   -0.7594808    0.0953721   -0.6435007
  -0.0797990   -0.1932230    0.0215500   -0.3349331   -0.7963354   -0.5036564
  -0.0782130   -0.1937830    0.0242720    0.5691941   -0.5989800    0.5632416
  -0.0909360   -0.1888180    0.0347460   -0.7527319    0.6438708   -0.1372048
  -0.0788110   -0.1839520    0.0249760    0.1913903    0.8646860    0.4644221
  -0.0839780   -0.1848230    0.0256750   -0.5286124    0.8159984   -0.2339134
  -0.0789670   -0.1891040    0.0161730   -0.4080488    0.1520117   -0.9002159
  -0.0746200   -0.1831090    0.0190620   -0.1051042    0.8913662   -0.4409302
  -0.0720800   -0.1926570    0.0124330    0.2446472   -0.6458230   -0.7232292
  -0.0693370   -0.1915920    0.0189530    0.8661171   -0.4377450    0.2412892
  -0.0700390   -0.1875380    0.0201580    0.7939267    0.5845066    0.1674289
  -0.0772890   -0.1838670    0.0226570    0.2181460    0.9384973    0.2676474
  -0.0962630   -0.0213810   -0.0645560    0.1252175    0.9685890   -0.2148395
  -0.0980300   -0.0222150   -0.0497840   -0.8417500    0.4845650    0.2380204
  -0.0941780   -0.0194810   -0.0471950    0.0877066    0.9961073   -0.0088218
  -0.0905420   -0.0322580   -0.0804690    0.9095711   -0.0760090    0.4085377
  -0.0942950   -0.0283000   -0.0797660    0.0344795    0.9389743   -0.3422548
  -0.0940380   -0.0263810   -0.0647870    0.9966370    0.0819244    0.0017816
  -0.1005040   -0.0274670   -0.0674140   -0.9007913    0.3941923   -0.1821742
  -0.0991400   -0.0262880   -0.0498010   -0.8808722   -0.3897623    0.2686067
  -0.0910780   -0.0265140   -0.0361770   -0.8812172   -0.2503953    0.4009470
  -0.0909620   -0.0213830   -0.0379390   -0.7817076    0.4183796    0.4624843
  -0.0892240   -0.0197400   -0.0377990    0.1291918    0.9890690    0.0710775
  -0.0907140   -0.0233610   -0.0480970    0.9367031    0.1909100   -0.2934974
  -0.0853200   -0.0450800   -0.0977820    0.2161226   -0.7237916    0.6552990
  -0.0818450   -0.0374840   -0.0942580    0.8077651    0.2307029    0.5424866
  -0.0938340   -0.0369410   -0.0850170    0.4180631   -0.7709204    0.4805258
  -0.0859400   -0.0354890   -0.0941460    0.0950523    0.9051166   -0.4144019
  -0.0949250   -0.0316450   -0.0838680   -0.6969725    0.5072097   -0.5069198
  -0.0948940   -0.0311210   -0.0681940    0.6669915   -0.7267852    0.1640295
  -0.1009610   -0.0320390   -0.0659640   -0.6923064   -0.7134290    0.1083093
  -0.0877630   -0.0300980   -0.0358550   -0.0044511   -0.9680540   -0.2507023
  -0.0965080   -0.0269650   -0.0481890   -0.0653051   -0.9977341   -0.0161848
  -0.0799940   -0.0352500   -0.0195650   -0.3451962   -0.6245594    0.7005463
  -0.0833110   -0.0316710   -0.0199640   -0.6546534    0.1051978    0.7485735
  -0.0836980   -0.0276760   -0.0221450   -0.5999600    0.4950651    0.6284573
  -0.0833810   -0.0267620   -0.0335240    0.8529639   -0.0258416   -0.5213298
  -0.0784880   -0.0220860   -0.0236100    0.2007826    0.6137709    0.7635258
  -0.0935540   -0.0277190   -0.0507030    0.4777966   -0.8747787   -0.0804528
  -0.0775480   -0.0528850   -0.1078240   -0.5648456   -0.7990468   -0.2060914
  -0.0736220   -0.0526640   -0.1078810    0.1227416   -0.6887085    0.7145733
  -0.0896710   -0.0445400   -0.0968560   -0.6735243   -0.7061220   -0.2185331
  -0.0709810   -0.0458450   -0.1043330    0.6294807    0.1904675    0.7533102
  -0.0972750   -0.0365340   -0.0820330   -0.3207598   -0.9326779    0.1650003
  -0.0741940   -0.0423420   -0.1056690    0.2329477    0.9335652   -0.2723810
  -0.0851810   -0.0383170   -0.0974410   -0.4915304    0.5005224   -0.7126536
  -0.0973240   -0.0363630   -0.0844640   -0.9075010   -0.0297248   -0.4189969
  -0.0863550   -0.0297170   -0.0347970    0.5285135   -0.7045006   -0.4736585
  -0.0777350   -0.0336790   -0.0200410    0.6825431   -0.7012279    0.2059477
  -0.0739390   -0.0295990   -0.0207280    0.9164512   -0.2330804   -0.3252549
  -0.0610960   -0.0579720   -0.1177730   -0.4101389    0.0918238   -0.9073888
  -0.0633440   -0.0599620   -0.1169090   -0.4956024   -0.7834624   -0.3749198
  -0.0755540   -0.0513380   -0.1092490   -0.4991382    0.2272991   -0.8361795
  -0.0605280   -0.0603790   -0.1159460    0.0073797   -0.6809915    0.7322541
  -0.0876940   -0.0439110   -0.0979130   -0.6584774    0.2356242   -0.7147648
  -0.0572900   -0.0517980   -0.1120000    0.4834928    0.2508889    0.8386236
  -0.0604760   -0.0491620   -0.1145420    0.2117744    0.9205150   -0.3283348
  -0.0723540   -0.0446350   -0.1082210   -0.3676676    0.4540552   -0.8115753
  -0.0453650   -0.0586120   -0.1238690   -0.1059141    0.4308803   -0.8961721
  -0.0450480   -0.0636060   -0.1233320   -0.2783738   -0.1096213   -0.9541966
  -0.0588050   -0.0521070   -0.1166390   -0.2449891    0.4579195   -0.8545701
  -0.0473960   -0.0667770   -0.1215330   -0.3748731   -0.9015082   -0.2162249
  -0.0444560   -0.0640850   -0.1193680    0.0193034   -0.5141464    0.8574852
  -0.0426660   -0.0576660   -0.1173050    0.3291304    0.3319735    0.8840061
  -0.0448310   -0.0551150   -0.1199080    0.2512791    0.9396141   -0.2323449
  -0.0288890   -0.0612480   -0.1234580    0.2201196    0.9562377   -0.1927610
  -0.0271280   -0.0637300   -0.1259480    0.0785159    0.4649220   -0.8818633
  -0.0285810   -0.0696610   -0.1266910   -0.1091324   -0.1240891   -0.9862515
  -0.0307600   -0.0725820   -0.1247320   -0.2684866   -0.9502562   -0.1578862
  -0.0288190   -0.0697450   -0.1215400   -0.1108068   -0.5458423    0.8305288
  -0.0269520   -0.0625140   -0.1198390    0.1821146    0.4526233    0.8729069
  -0.0107320   -0.0659570   -0.1187530   -0.1222251    0.4062636    0.9055446
  -0.0119150   -0.0644170   -0.1208530    0.2120066    0.9718703   -0.1025734
  -0.0100610   -0.0668760   -0.1240860    0.2832314    0.5205591   -0.8054801
  -0.0115560   -0.0749620   -0.1259470    0.1323741   -0.0885821   -0.9872337
  -0.0133930   -0.0770660   -0.1253730   -0.1499806   -0.8705077   -0.4687452
  -0.0130930   -0.0758850   -0.1217480   -0.2777333   -0.6419697    0.7146602
   0.0026720   -0.0798920   -0.1172010   -0.3923187   -0.6448130    0.6559743
   0.0048440   -0.0684730   -0.1139010   -0.1958939    0.5794247    0.7911338
   0.0043750   -0.0686950   -0.1160820    0.3800243    0.8579772   -0.3456250
   0.0061180   -0.0715680   -0.1185830    0.4451697    0.4897458   -0.7496485
   0.0047690   -0.0804840   -0.1211210    0.3804502    0.1284544   -0.9158368
   0.0036500   -0.0815770   -0.1219230    0.1093245   -0.7688589   -0.6300033
   0.0194510   -0.0843560   -0.1135110    0.1621855   -0.8627663   -0.4788842
   0.0174570   -0.0830140   -0.1092310   -0.5777217   -0.5665556    0.5875818
   0.0192370   -0.0725860   -0.1063940   -0.2067773    0.7847314    0.5843284
   0.0195830   -0.0731730   -0.1082930    0.5196354    0.7489127   -0.4112284
   0.0214530   -0.0755880   -0.1105870    0.5854404    0.5055803   -0.6337572
   0.0206360   -0.0825270   -0.1128280    0.5950096    0.0841320   -0.7993031
   0.0331020   -0.0876630   -0.1006600    0.7594066   -0.1686987   -0.6283649
   0.0313250   -0.0899290   -0.1006210    0.0287121   -0.9422746   -0.3336079
   0.0301520   -0.0878980   -0.0985260   -0.7817101   -0.3754708    0.4979468
   0.0321390   -0.0764690   -0.0961080   -0.2318457    0.9082849    0.3482329
   0.0322710   -0.0774000   -0.0963280    0.6304526    0.7211735   -0.2871207
   0.0340290   -0.0796280   -0.0983530    0.7946670    0.4036449   -0.4534040
   0.0419110   -0.0859000   -0.0833920    0.9061726    0.3361137   -0.2566687
   0.0409570   -0.0946320   -0.0853080    0.8615093   -0.1969623   -0.4679823
   0.0399260   -0.0965720   -0.0854440    0.0296599   -0.9455813   -0.3240314
   0.0382530   -0.0942000   -0.0843490   -0.8852299   -0.3810717    0.2667442
   0.0395330   -0.0827870   -0.0820770   -0.7904152    0.4708416    0.3918571
   0.0404480   -0.0827040   -0.0812220    0.2418299    0.9492424    0.2011396
   0.0435690   -0.0882420   -0.0639350    0.3620635    0.8688848    0.3375638
   0.0473140   -0.0900690   -0.0663760    0.7135147   -0.1456491    0.6853343
   0.0480510   -0.0987150   -0.0685570    0.9686149   -0.2244078   -0.1068941
   0.0470710   -0.1015940   -0.0687800    0.0347837   -0.8351393    0.5489376
   0.0429200   -0.0996500   -0.0680430   -0.6572339   -0.3738707    0.6544191
   0.0426550   -0.0880090   -0.0657510   -0.7442892    0.1648955    0.6471809
  -0.0583770   -0.2093630    0.0215390    0.8071391    0.3464709   -0.4780004
  -0.0712010   -0.2165680    0.0187160   -0.3832318   -0.2956893   -0.8750436
  -0.0723590   -0.2126710    0.0209820   -0.7866106    0.2640707   -0.5581312
  -0.0597220   -0.2062240    0.0211760   -0.1385027    0.9870053   -0.0814705
  -0.0607460   -0.2168620    0.0185510    0.6709043   -0.6255194   -0.3982624
  -0.0618380   -0.2127710    0.0278270    0.8434366   -0.1212602    0.5233648
  -0.0634490   -0.2085940    0.0281040    0.0560225    0.8681391    0.4931490
  -0.0713320   -0.2201080    0.0256100   -0.6887635   -0.6345659   -0.3506151
  -0.0660600   -0.2201530    0.0230370    0.4102348   -0.9019168   -0.1351051
  -0.0723680   -0.2162900    0.0283800   -0.9158726    0.3989775   -0.0446575
  -0.0659780   -0.2150700    0.0340750    0.8854673    0.0736086    0.4588348
  -0.0680940   -0.2126750    0.0343240   -0.0881468    0.8180906    0.5682939
  -0.0744820   -0.2196520    0.0356600   -0.9432374    0.3306236   -0.0314839
  -0.0732890   -0.2231450    0.0327210   -0.6533725   -0.5902994   -0.4739737
  -0.0684680   -0.2225850    0.0303520    0.4853870   -0.8473073   -0.2155683
  -0.0675760   -0.2192930    0.0407290    0.9076631    0.1749797    0.3814838
  -0.0715530   -0.2170180    0.0411880   -0.2698520    0.7620820    0.5885668
  -0.0747960   -0.2245880    0.0422760   -0.9819635    0.1710519    0.0805543
  -0.0740220   -0.2274810    0.0392050   -0.6096051   -0.6590838   -0.4404433
  -0.0714930   -0.2259600    0.0368090    0.4912997   -0.7849683   -0.3774247
  -0.0683170   -0.2242060    0.0468430    0.9250247    0.2591085    0.2778346
  -0.0715830   -0.2228130    0.0474600   -0.3047970    0.7015732    0.6441225
  -0.0739540   -0.2294630    0.0488700   -0.9523351    0.1853056    0.2423214
  -0.0735570   -0.2317240    0.0459340   -0.7359255   -0.5499354   -0.3949491
  -0.0719470   -0.2300110    0.0437050    0.5177007   -0.7222143   -0.4586855
  -0.0713060   -0.2283940    0.0541510   -0.4363419    0.6522622    0.6198062
  -0.0686000   -0.2282970    0.0536990    0.9157102    0.3581294    0.1822588
  -0.0725300   -0.2340800    0.0555650   -0.8862683    0.1721932    0.4299745
  -0.0738380   -0.2366030    0.0521440   -0.8745879   -0.4453896   -0.1916353
  -0.0729480   -0.2351840    0.0495090    0.3436933   -0.6816330   -0.6459499
  -0.0695180   -0.2394640    0.0610390   -0.8353940    0.0695292    0.5452363
  -0.0691620   -0.2331290    0.0612960   -0.3638411    0.5671171    0.7389167
  -0.0671790   -0.2334510    0.0595730    0.9529285    0.3003168   -0.0416780
  -0.0711880   -0.2415260    0.0578010   -0.8648902   -0.5016701   -0.0170908
  -0.0710190   -0.2401970    0.0553360    0.2959875   -0.6631573   -0.6874691
  -0.0683510   -0.2466710    0.0631190   -0.8394752   -0.5390476    0.0686230
  -0.0650680   -0.2437240    0.0665850   -0.7712674    0.0052722    0.6364894
  -0.0653720   -0.2390440    0.0665760   -0.1565213    0.5511550    0.8195909
  -0.0650140   -0.2388020    0.0650860    0.9254330    0.3290131   -0.1879470
  -0.0684410   -0.2451370    0.0609420    0.2833498   -0.5598834   -0.7786164
  -0.0641680   -0.2500420    0.0654210    0.2792512   -0.5021921   -0.8184264
  -0.0641450   -0.2514650    0.0678770   -0.7888408   -0.5378915    0.2973264
  -0.0607400   -0.2487940    0.0715260   -0.7320023   -0.0509495    0.6793944
  -0.0611020   -0.2447460    0.0716990    0.3386789    0.6174184    0.7099937
  -0.0614320   -0.2439380    0.0697200    0.8871156    0.4221690   -0.1865454
  -0.0573530   -0.2500680    0.0727250    0.8709794    0.2195567   -0.4395334
  -0.0596800   -0.2544770    0.0700350    0.4205452   -0.7102477   -0.5645263
  -0.0588900   -0.2543580    0.0728990   -0.2053532   -0.7459041    0.6336065
  -0.0574100   -0.2523020    0.0742420   -0.0920194   -0.1261113    0.9877390
  -0.0567000   -0.2520080    0.0735980    0.9325011    0.0089232    0.3610569
  -0.0152700   -0.0010150    0.0378870    0.1619974    0.8247488   -0.5417991
  -0.0045890   -0.0073380    0.0476850    0.8924560    0.3475520    0.2876281
  -0.0006020   -0.0121490    0.0414640    0.8583854    0.0677132   -0.5085169
  -0.0200860   -0.0029860    0.0383330   -0.8822111   -0.1347902   -0.4511486
  -0.0122200   -0.0039460    0.0340110    0.0323524    0.5060754   -0.8618822
  -0.0226640    0.0003580    0.0420610   -0.8235104   -0.2741677   -0.4966514
  -0.0191250    0.0018690    0.0412480    0.1208368    0.7588999   -0.6398980
  -0.0082180   -0.0028060    0.0542500    0.8866957    0.4191500    0.1951514
  -0.0064900   -0.0112480    0.0489880    0.1637414   -0.7602169    0.6286963
  -0.0037170   -0.0155280    0.0424470    0.4781114   -0.8417823    0.2506234
  -0.0172570   -0.0061570    0.0346640   -0.4078774   -0.6278439   -0.6629088
  -0.0090470   -0.0060940    0.0549800    0.1266825   -0.7460031    0.6537820
  -0.0127620   -0.0011700    0.0608100   -0.0673479   -0.7258947    0.6845007
  -0.0263270    0.0037050    0.0448400   -0.7239853   -0.4429919   -0.5287754
  -0.0235200    0.0049060    0.0440550    0.1388315    0.6982425   -0.7022700
  -0.0112850    0.0016010    0.0610970    0.8636346    0.3907852    0.3184686
  -0.0168110    0.0068450    0.0660790    0.7344609    0.4191756    0.5337218
  -0.0174250    0.0044900    0.0654260   -0.1732711   -0.6590748    0.7318453
  -0.0311920    0.0068760    0.0469850   -0.6981270   -0.4493447   -0.5574120
  -0.0278540    0.0081880    0.0466310    0.1695564    0.7411320   -0.6495953
  -0.0318600    0.0114390    0.0495580    0.2680327    0.7073628   -0.6540614
  -0.0239040    0.0127290    0.0687130    0.6041535    0.4906827    0.6278766
  -0.0240390    0.0101110    0.0682070   -0.2752896   -0.5598900    0.7814978
  -0.0349080    0.0104110    0.0496620   -0.7812323   -0.2157882   -0.5857572
  -0.0361800    0.0152640    0.0517860   -0.6429272   -0.1973266   -0.7400721
  -0.0349820    0.0156620    0.0521040    0.3363806    0.6298782   -0.7000726
  -0.0319040    0.0183960    0.0684040    0.4208618    0.6641814    0.6178498
  -0.0324790    0.0148300    0.0688690   -0.4725599   -0.3729301    0.7985050
  -0.0410070    0.0191010    0.0667270   -0.5214833   -0.4505594    0.7246043
  -0.0409940    0.0184980    0.0535460   -0.4705507   -0.6584843   -0.5873504
  -0.0392800    0.0196240    0.0527290    0.2821198    0.3324250   -0.8999456
  -0.0402390    0.0233480    0.0660180    0.2487016    0.7713994    0.5857392
  -0.0486190    0.0277220    0.0627450    0.1710186    0.8247892    0.5389577
  -0.0484610    0.0240970    0.0638400   -0.5290879   -0.3675318    0.7648441
  -0.0474240    0.0207800    0.0538520   -0.3729416   -0.8625688   -0.3418913
  -0.0448350    0.0228420    0.0515850    0.4079283    0.1357986   -0.9028584
  -0.0502610    0.0248680    0.0491580    0.6468509   -0.0357966   -0.7617759
  -0.0560360    0.0318850    0.0580040    0.2379319    0.8022946    0.5474593
  -0.0560260    0.0283830    0.0599520   -0.5933763   -0.2321422    0.7707234
  -0.0521740    0.0234090    0.0512720   -0.3140601   -0.9119214   -0.2641319
  -0.0556470    0.0260850    0.0470310   -0.2028926   -0.9230426   -0.3268438
  -0.0525900    0.0282320    0.0453020    0.8389675   -0.0779385   -0.5385714
  -0.0622910    0.0361900    0.0524550    0.1777834    0.8771114    0.4461711
  -0.0638240    0.0314950    0.0554190   -0.6491203   -0.3051118    0.6968139
  -0.0702510    0.0337870    0.0498030   -0.7606034   -0.4413066    0.4761627
  -0.0585370    0.0281350    0.0423350   -0.0606966   -0.9742988   -0.2169282
  -0.0549840    0.0296960    0.0404380    0.8654294   -0.0766972   -0.4951258
  -0.0705060    0.0393500    0.0481520   -0.1271431    0.9104794    0.3935249
  -0.0742810    0.0375520    0.0415720   -0.5751315    0.7978543    0.1806992
  -0.0755970    0.0333010    0.0430230   -0.8045421   -0.4694253   -0.3638020
  -0.0601080    0.0295280    0.0372830   -0.0461729   -0.9595995   -0.2775553
  -0.0570090    0.0311980    0.0355580    0.9190369    0.0212910   -0.3935960
  -0.0584530    0.0308630    0.0302370    0.8371233   -0.4968411    0.2288526
  -0.0654140    0.0377310    0.0381800    0.0761145    0.9134752   -0.3997120
  -0.0695520    0.0351690    0.0373760   -0.8751162    0.0333600   -0.4827616
  -0.0606570    0.0294530    0.0319620   -0.0632440   -0.9975314    0.0305181
  -0.0620480    0.0279900    0.0268350   -0.1427023   -0.8221516    0.5510923
  -0.0585760    0.0284370    0.0256920    0.9585733   -0.2306004    0.1672145
  -0.0634540    0.0363260    0.0299550    0.1204538    0.9322744   -0.3411089
  -0.0658700    0.0343820    0.0303520   -0.9982069    0.0519395    0.0297540
  -0.0686820    0.0311400    0.0234630   -0.9561373   -0.1791405   -0.2317543
  -0.0655980    0.0249100    0.0234170   -0.1339139   -0.9376592    0.3207215
  -0.0600320    0.0259270    0.0211030    0.3905163   -0.0006972   -0.9205957
  -0.0652520    0.0341420    0.0218420   -0.3393374    0.7604832   -0.5536383
   0.0165430   -0.0442620    0.0554650   -0.7233636   -0.6877226   -0.0615040
   0.0196890   -0.0475000    0.0427070   -0.7848972   -0.3794792   -0.4898285
   0.0226320   -0.0491290    0.0437010   -0.1182881   -0.9609581   -0.2501347
   0.0103040   -0.0401590    0.0663320   -0.5547606   -0.8300712   -0.0567672
   0.0190550   -0.0439170    0.0559190    0.7306127   -0.4947902    0.4705186
   0.0125080   -0.0319300    0.0595110   -0.3327483    0.7883620   -0.5174592
   0.0177730   -0.0355380    0.0503930   -0.3012868    0.8611584   -0.4094294
   0.0208020   -0.0404170    0.0407000   -0.0089737    0.3079825   -0.9513497
   0.0214020   -0.0416870    0.0400380    0.9694697    0.2424375    0.0367771
   0.0026920   -0.0364210    0.0762890   -0.3835101   -0.9227142   -0.0389682
   0.0124810   -0.0394030    0.0669680    0.7012861   -0.3605999    0.6149516
   0.0064690   -0.0278980    0.0678500   -0.3143099    0.7811964   -0.5393899
   0.0190480   -0.0370330    0.0514170    0.8980614    0.4018344    0.1789269
   0.0065720   -0.0284230    0.0707680    0.6791028    0.6205114    0.3921544
   0.0133960   -0.0326000    0.0615260    0.7858545    0.5477010    0.2871522
  -0.0071190   -0.0329390    0.0841620   -0.2136816   -0.9681491    0.1304898
   0.0044530   -0.0351480    0.0767430    0.6591899   -0.1346466    0.7398236
  -0.0016450   -0.0244700    0.0742970   -0.2269653    0.7381473   -0.6353151
  -0.0026630   -0.0251780    0.0779390    0.5696672    0.6538930    0.4978989
  -0.0059040   -0.0309700    0.0839760    0.5661513    0.0852118    0.8198852
  -0.0181350   -0.0298340    0.0902920   -0.1759153   -0.9532973    0.2455158
  -0.0106340   -0.0213110    0.0795770   -0.0680426    0.6120302   -0.7879018
  -0.0126650   -0.0217470    0.0837490    0.5602542    0.6572471    0.5041245
  -0.0168130   -0.0270090    0.0905010    0.5210643    0.0546739    0.8517645
  -0.0284780   -0.0246020    0.0959590   -0.3061693   -0.9155697    0.2607535
  -0.0199790   -0.0171230    0.0831270    0.0034399    0.5215087   -0.8532390
  -0.0225930   -0.0161730    0.0876940    0.5601782    0.7409882    0.3703200
  -0.0269930   -0.0214310    0.0970350    0.4632054    0.1242585    0.8774968
  -0.0386420   -0.0179320    0.0996440   -0.4671527   -0.7880914    0.4008494
  -0.0287970   -0.0107770    0.0839610    0.1398367    0.3412485   -0.9295134
  -0.0325110   -0.0093300    0.0880940    0.5230132    0.7982690    0.2987036
  -0.0366090   -0.0127080    0.0993540    0.2455820    0.4879260    0.8376262
  -0.0477000   -0.0091950    0.0951020   -0.7225243   -0.5476933    0.4218894
  -0.0381380   -0.0054930    0.0821890    0.3124021    0.0826404   -0.9463485
  -0.0416930   -0.0028470    0.0851530    0.4943184    0.8452846    0.2028381
  -0.0461460   -0.0044790    0.0941580    0.0499507    0.6358694    0.7701786
  -0.0566040   -0.0015360    0.0887230   -0.7342474   -0.5825639    0.3485686
  -0.0466050    0.0006950    0.0785880    0.4713647   -0.0829820   -0.8780258
  -0.0508510    0.0041320    0.0803890    0.5291160    0.8270111    0.1899708
  -0.0561360    0.0026690    0.0882960   -0.0682821    0.6367407    0.7680488
  -0.0648090    0.0060940    0.0812860   -0.7983267   -0.5394653    0.2676784
  -0.0543040    0.0066350    0.0732150    0.5291487   -0.3483117   -0.7737445
  -0.0581030    0.0104050    0.0730680    0.5642874    0.8160511    0.1250612
  -0.0638060    0.0107890    0.0801910   -0.1779502    0.7446319    0.6433173
  -0.0702520    0.0125130    0.0705780   -0.8419290   -0.5168544    0.1549743
  -0.0604380    0.0118320    0.0650610    0.6492439   -0.5114879   -0.5629054
  -0.0629400    0.0160710    0.0627870    0.6698819    0.7383758    0.0778423
  -0.0695890    0.0171360    0.0691800   -0.2952965    0.8062311    0.5126318
  -0.0743280    0.0169120    0.0587590   -0.8225709   -0.5599463    0.0991834
  -0.0628140    0.0159890    0.0536400    0.8100702   -0.4698545   -0.3507464
  -0.0666450    0.0217260    0.0520000    0.5908512    0.8059264    0.0371151
  -0.0727580    0.0228660    0.0568540   -0.4605417    0.8284250    0.3187685
  -0.0747700    0.0171350    0.0459840   -0.6341427   -0.7585737    0.1497633
  -0.0636500    0.0175160    0.0447290    0.9299357   -0.3510802   -0.1093725
  -0.0688110    0.0225250    0.0416720    0.3987445    0.8879566   -0.2292069
  -0.0757740    0.0232060    0.0443620   -0.7503295    0.6257405   -0.2132006
  -0.0703950    0.0125570    0.0347300   -0.4106435   -0.8977366    0.1595024
  -0.0627350    0.0165150    0.0340330    0.9755818    0.0426399    0.2154576
  -0.0664960    0.0182090    0.0334770    0.1624830    0.9197763   -0.3572265
  -0.0723610    0.0184410    0.0359570   -0.7227533    0.4856925   -0.4916609
  -0.0686380    0.0090380    0.0231480   -0.5055633   -0.5807613   -0.6380612
  -0.0609600    0.0136380    0.0241490    0.9222257   -0.3166576   -0.2218733
  -0.0629900    0.0154190    0.0280750    0.2121485    0.9225392   -0.3223576
  -0.0636100    0.0127470    0.0226750   -0.0124448    0.6290658   -0.7772525
  -0.0683050    0.0124720    0.0241760   -0.4426883    0.6228229   -0.6450726
   0.0331260   -0.0591660    0.0670470    0.9212761    0.2608631    0.2884456
   0.0331490   -0.0680160    0.0693150    0.8526710   -0.2672345    0.4489298
   0.0388880   -0.0717210    0.0537710    0.7813081   -0.2078851   -0.5885078
   0.0331400   -0.0582700    0.0656540    0.2499171    0.9469837   -0.2018993
   0.0378450   -0.0630510    0.0513570    0.8460398    0.1548234   -0.5101436
   0.0264490   -0.0534060    0.0787590    0.3194987    0.9115573   -0.2588126
   0.0264980   -0.0552900    0.0817580    0.8418667    0.2375585    0.4845890
   0.0253210   -0.0622740    0.0828650    0.7421128   -0.2065757    0.6376481
   0.0310730   -0.0716680    0.0691010   -0.2125896   -0.9352489    0.2830462
   0.0358020   -0.0747090    0.0528190    0.3601914   -0.8902189   -0.2788771
   0.0342670   -0.0718320    0.0535000   -0.7085819   -0.2421470   -0.6627794
   0.0322320   -0.0629540    0.0513240   -0.5858289   -0.1701698   -0.7923678
   0.0300340   -0.0594280    0.0661510   -0.8109433    0.4354386   -0.3908506
   0.0347540   -0.0616730    0.0501360   -0.1925162    0.7926876   -0.5784323
   0.0237360   -0.0546540    0.0791720   -0.7014454    0.3254052   -0.6341024
   0.0136270   -0.0507340    0.0892700   -0.6151129    0.1026690   -0.7817258
   0.0172440   -0.0474880    0.0893900    0.3137952    0.9257795   -0.2108669
   0.0157720   -0.0500640    0.0927770    0.6931784    0.2509519    0.6756677
   0.0147650   -0.0573560    0.0946700    0.6464127   -0.1250594    0.7526691
   0.0228390   -0.0665320    0.0828550   -0.3790591   -0.8899094    0.2537231
   0.0303250   -0.0691760    0.0695620   -0.9331660   -0.1660346   -0.3188004
   0.0226190   -0.0637920    0.0830360   -0.8360408   -0.1029684   -0.5389186
   0.0124030   -0.0585120    0.0945600   -0.7130419   -0.2229500   -0.6647289
   0.0003270   -0.0542840    0.1042760   -0.5854240   -0.3758110   -0.7183626
   0.0020700   -0.0457920    0.0969760   -0.4848584    0.0269601   -0.8741771
   0.0054510   -0.0434300    0.0978520    0.2604593    0.9598935   -0.1037569
   0.0032760   -0.0454660    0.1016630    0.5622552    0.4383558    0.7012228
   0.0021450   -0.0544350    0.1047390    0.5582505   -0.0277648    0.8292077
   0.0126630   -0.0605280    0.0947220   -0.3478234   -0.9218241    0.1710530
   0.0002810   -0.0568820    0.1051130   -0.2985286   -0.9384106    0.1739720
  -0.0134970   -0.0525680    0.1128800   -0.3504606   -0.8926262    0.2835415
  -0.0132960   -0.0515380    0.1120540   -0.4386515   -0.6963222   -0.5680846
  -0.0108330   -0.0429980    0.1026060   -0.3279913   -0.0307163   -0.9441812
  -0.0078970   -0.0405950    0.1038510    0.2335080    0.9571858   -0.1710827
  -0.0104530   -0.0417670    0.1088580    0.4586279    0.5964036    0.6587588
  -0.0113230   -0.0500810    0.1125630    0.4068496    0.0935670    0.9086906
  -0.0254570   -0.0432990    0.1158500    0.1062029    0.2005297    0.9739142
  -0.0280920   -0.0463330    0.1156690   -0.2541317   -0.5172106    0.8172578
  -0.0279590   -0.0471590    0.1146500   -0.3934831   -0.9193165    0.0053070
  -0.0241100   -0.0384040    0.1056420   -0.1082402    0.0211285   -0.9939002
  -0.0214140   -0.0366820    0.1085380    0.3195744    0.9301983   -0.1805640
  -0.0249580   -0.0370910    0.1126440    0.2979238    0.6747171    0.6752764
  -0.0394040   -0.0316980    0.1101990    0.1027281    0.7127385    0.6938666
  -0.0404840   -0.0384680    0.1136090   -0.1196641    0.2838314    0.9513781
  -0.0429020   -0.0402190    0.1133100   -0.2326080   -0.0015697    0.9725693
  -0.0427330   -0.0419580    0.1136210   -0.4559823   -0.8345210    0.3092812
  -0.0377160   -0.0348130    0.1049330    0.1259483   -0.1236352   -0.9843025
  -0.0352070   -0.0315070    0.1074810    0.4098911    0.8565495   -0.3135478
  -0.0484760   -0.0264460    0.1031660    0.5091983    0.8170346   -0.2705026
  -0.0535980   -0.0264640    0.1056720    0.0337658    0.7248102    0.6881207
  -0.0544860   -0.0321050    0.1087650   -0.2339416    0.3834350    0.8934478
  -0.0569510   -0.0334160    0.1084330   -0.4495304    0.0405762    0.8923430
  -0.0562910   -0.0361380    0.1081070   -0.5790356   -0.8083729    0.1060706
  -0.0504210   -0.0289100    0.1014270    0.2539457   -0.2275811   -0.9400630
  -0.0614300   -0.0214870    0.0951790    0.4312689   -0.2538561   -0.8657737
  -0.0604790   -0.0201560    0.0966810    0.6149207    0.7787608   -0.1241138
  -0.0655300   -0.0193000    0.0976180   -0.0985861    0.7069358    0.7003731
  -0.0670420   -0.0253240    0.1009310   -0.4000170    0.3924678    0.8282243
  -0.0685370   -0.0251760    0.0997600   -0.5668382    0.1150089    0.8157618
  -0.0685130   -0.0287290    0.1008850   -0.6927307   -0.7072761    0.1410134
  -0.0791600   -0.0211610    0.0913800   -0.3087586   -0.8573951   -0.4117546
  -0.0710300   -0.0142320    0.0863910    0.5898773   -0.3226268   -0.7402410
  -0.0704180   -0.0123330    0.0882500    0.6125677    0.7897490    0.0325153
  -0.0755300   -0.0120360    0.0870360   -0.1420579    0.7608692    0.6331648
  -0.0772480   -0.0166780    0.0913530   -0.4091479    0.5172596    0.7516918
  -0.0803860   -0.0188790    0.0900700   -0.6853987    0.1606715    0.7102206
  -0.0875170   -0.0130030    0.0796900    0.1652957   -0.8630794   -0.4772539
  -0.0884970   -0.0116800    0.0769510   -0.9093766    0.1152558    0.3996877
  -0.0786690   -0.0086300    0.0746100    0.7167501   -0.4714912   -0.5137756
  -0.0784910   -0.0061710    0.0764910    0.6929167    0.7167241    0.0785684
  -0.0840770   -0.0046710    0.0751830   -0.1162801    0.8606194    0.4957954
  -0.0864810   -0.0095250    0.0795070   -0.6586023    0.5274663    0.5366771
  -0.0910550   -0.0057720    0.0609480   -0.8812698   -0.4379973   -0.1775440
  -0.0877320   -0.0069450    0.0643340    0.0273916   -0.9497948   -0.3116722
  -0.0898320   -0.0032250    0.0639850   -0.8274787    0.5205914    0.2103890
  -0.0827120   -0.0047290    0.0602710    0.8234594   -0.5441997   -0.1605031
  -0.0824240   -0.0006150    0.0623940    0.7775679    0.5987401    0.1920897
  -0.0867440    0.0013130    0.0603420   -0.2612970    0.9091718    0.3242384
  -0.0881600    0.0016760    0.0475450   -0.6915456    0.7055961   -0.1545924
  -0.0887140    0.0014360    0.0456270   -0.9208436   -0.0293474   -0.3888262
  -0.0846710   -0.0050090    0.0484110   -0.0974755   -0.9951866   -0.0101062
  -0.0855210    0.0046220    0.0458070   -0.4872488    0.8606006   -0.1481729
  -0.0805420   -0.0020080    0.0453980    0.8879399   -0.3925143    0.2397818
  -0.0813980    0.0038360    0.0471500    0.7157292    0.6463663    0.2644663
  -0.0793640    0.0016130    0.0360800   -0.5233063    0.6662169   -0.5313244
  -0.0814860   -0.0002660    0.0356880   -0.5389668    0.6882240   -0.4856567
  -0.0835330   -0.0052920    0.0350630   -0.8969424   -0.2613804   -0.3566155
  -0.0788770   -0.0075970    0.0329990    0.1306105   -0.9360610    0.3266967
  -0.0759450    0.0016370    0.0329050    0.4448431    0.8955722    0.0080682
  -0.0746940   -0.0046460    0.0314840    0.7417809   -0.3552294    0.5688350
  -0.0686630   -0.0039620    0.0207520   -0.0277312    0.5805155   -0.8137768
  -0.0729640   -0.0041200    0.0221420   -0.3697753    0.7367841   -0.5660526
  -0.0743100   -0.0056550    0.0213460   -0.5151102    0.5256583   -0.6770117
  -0.0767530   -0.0105620    0.0201760   -0.6180895   -0.2891898   -0.7309819
  -0.0715320   -0.0134050    0.0195040    0.3066014   -0.9109957   -0.2758306
  -0.0644220   -0.0089050    0.0222700    0.9609225   -0.0521040    0.2718698
   0.0440780   -0.1083200    0.0958410    0.8260241    0.2971327    0.4789533
   0.0445820   -0.1163470    0.0972190    0.7235232   -0.2596383    0.6396110
   0.0547660   -0.1221970    0.0830800    0.8854070   -0.1597831   -0.4364903
   0.0433170   -0.1055290    0.0939760    0.3756599    0.9216710   -0.0969648
   0.0543630   -0.1136100    0.0818160    0.9219005    0.3643696    0.1316594
   0.0336970   -0.0999140    0.1076840    0.3989891    0.9072366   -0.1331522
   0.0339320   -0.1027960    0.1099390    0.7461680    0.2649456    0.6107677
   0.0337930   -0.1106880    0.1109400    0.5710839   -0.3132504    0.7587736
   0.0424190   -0.1195590    0.0961000   -0.3428236   -0.9164127    0.2065424
   0.0520220   -0.1257150    0.0815470    0.3252952   -0.9454026   -0.0199259
   0.0497620   -0.1221140    0.0814020   -0.5244317   -0.2359112   -0.8181181
   0.0495900   -0.1122890    0.0793560   -0.3579774    0.0552054   -0.9320968
   0.0528670   -0.1114810    0.0802270    0.4161825    0.6116769   -0.6727879
   0.0409250   -0.1064080    0.0929370   -0.6189599    0.4577786   -0.6382221
   0.0309160   -0.1022590    0.1061080   -0.5536569    0.3920155   -0.7347026
   0.0189390   -0.0960160    0.1160180   -0.3847873    0.3530092   -0.8528325
   0.0209090   -0.0940960    0.1176850    0.3890157    0.9211705   -0.0105640
   0.0204250   -0.0981350    0.1203310    0.5699019    0.2286806    0.7892509
   0.0196860   -0.1054710    0.1206130    0.3843733   -0.3545452    0.8523819
   0.0318110   -0.1131980    0.1095330   -0.3950639   -0.9069031    0.1464627
   0.0417420   -0.1158060    0.0955150   -0.8405073   -0.2388356   -0.4863178
   0.0311070   -0.1100430    0.1077810   -0.7299259   -0.3500739   -0.5870745
   0.0182800   -0.1049000    0.1174140   -0.5867827   -0.3658899   -0.7223647
   0.0041260   -0.0991990    0.1241640   -0.4072907   -0.3003097   -0.8625128
   0.0049450   -0.0910630    0.1228960   -0.2059768    0.3344444   -0.9196306
   0.0062230   -0.0892170    0.1247660    0.3778166    0.9156456    0.1372871
   0.0055040   -0.0934370    0.1282850    0.3972048    0.2317704    0.8879813
   0.0044010   -0.1008050    0.1284220    0.1769593   -0.3805941    0.9076528
   0.0184440   -0.1069400    0.1196860   -0.3045827   -0.9439115    0.1275163
   0.0030460   -0.1023190    0.1270850   -0.3370481   -0.9371855    0.0898997
  -0.0134210   -0.0971980    0.1300840   -0.3331327   -0.9380737   -0.0950807
  -0.0110830   -0.0939110    0.1277680   -0.1900820   -0.2715296   -0.9434726
  -0.0099830   -0.0856890    0.1263150    0.0288426    0.4666712   -0.8839605
  -0.0091620   -0.0851630    0.1294550    0.3031707    0.8705626    0.3875672
  -0.0109490   -0.0892960    0.1316490    0.1502345    0.1999919    0.9682111
  -0.0119030   -0.0951590    0.1311400   -0.0221864   -0.3018192    0.9531070
  -0.0289600   -0.0917340    0.1306590   -0.2713987   -0.4335640    0.8592817
  -0.0300310   -0.0920080    0.1289520   -0.3289634   -0.8999303   -0.2861967
  -0.0269660   -0.0896840    0.1279730    0.0247976   -0.2659895   -0.9636569
  -0.0255140   -0.0813110    0.1268430    0.2457777    0.5353138   -0.8081042
  -0.0252820   -0.0807670    0.1292340    0.2517918    0.8878702    0.3850810
  -0.0270880   -0.0834220    0.1315190   -0.0211139    0.2329959    0.9722485
  -0.0430880   -0.0780150    0.1279530   -0.2457051    0.1567003    0.9565950
  -0.0445010   -0.0843490    0.1267920   -0.4094233   -0.3121738    0.8572748
  -0.0463310   -0.0872020    0.1248400   -0.3039389   -0.9405261   -0.1517623
  -0.0423160   -0.0849450    0.1244030    0.2080843   -0.2998820   -0.9310057
  -0.0407350   -0.0767290    0.1238850    0.4069128    0.5735225   -0.7109809
  -0.0413150   -0.0762100    0.1274180    0.1725627    0.8738643    0.4545143
  -0.0562680   -0.0708760    0.1215960    0.0779450    0.8536256    0.5150223
  -0.0586210   -0.0731710    0.1218370   -0.4086166    0.1467711    0.9008278
  -0.0597970   -0.0810830    0.1200620   -0.5280957   -0.3268842    0.7837484
  -0.0614310   -0.0814470    0.1178460   -0.2799686   -0.9391208   -0.1991725
  -0.0560090   -0.0790840    0.1176990    0.3587916   -0.3174406   -0.8777813
  -0.0553010   -0.0721980    0.1181840    0.5468566    0.5647291   -0.6180849
  -0.0684000   -0.0660540    0.1102850    0.6020741    0.6420097   -0.4746896
  -0.0703460   -0.0660950    0.1131450   -0.1001887    0.8085475    0.5798389
  -0.0727260   -0.0678470    0.1128170   -0.5227195    0.1791844    0.8334610
  -0.0740190   -0.0741890    0.1120870   -0.6291002   -0.2451210    0.7376643
  -0.0759280   -0.0766130    0.1087250   -0.3014778   -0.9487806   -0.0944805
  -0.0690810   -0.0734580    0.1088070    0.5051424   -0.2653100   -0.8212440
  -0.0817840   -0.0688280    0.0989070    0.6493875   -0.2711101   -0.7104894
  -0.0805560   -0.0613050    0.1000350    0.6610866    0.6799873   -0.3171463
  -0.0834220   -0.0612810    0.1030560   -0.2487505    0.8042574    0.5397160
  -0.0857540   -0.0627530    0.1019760   -0.6482163    0.3002680    0.6997533
  -0.0871720   -0.0701900    0.1006050   -0.7593694   -0.2032233    0.6181088
  -0.0884140   -0.0720660    0.0966380   -0.2580603   -0.9471785   -0.1904146
  -0.0980390   -0.0677230    0.0817090   -0.1495333   -0.9385098   -0.3111900
  -0.0909550   -0.0638130    0.0854980    0.8000653   -0.3471614   -0.4892592
  -0.0907220   -0.0568130    0.0874110    0.6578589    0.7488334   -0.0804368
  -0.0925740   -0.0574270    0.0886430   -0.3215391    0.8624830    0.3908140
  -0.0958350   -0.0584220    0.0875770   -0.8138918    0.2763147    0.5111069
  -0.0977360   -0.0649740    0.0869360   -0.9146931   -0.0914417    0.3936686
  -0.1023250   -0.0608980    0.0695790   -0.9907727   -0.1353618   -0.0068231
  -0.0991900   -0.0614960    0.0645940   -0.0747579   -0.9264093   -0.3690219
  -0.0955220   -0.0604750    0.0689790    0.8184338   -0.5186783   -0.2472631
  -0.0952160   -0.0526320    0.0712300    0.6184421    0.7657363    0.1765710
  -0.0994570   -0.0542100    0.0724960   -0.2831149    0.9144453    0.2891984
  -0.0994140   -0.0536330    0.0704070   -0.9303200    0.3318968    0.1560424
