NORM_ASCII
3305 3779
  -0.0069260    0.1383630    0.0081500   -0.4619297   -0.7414596   -0.4866813
  -0.0042050    0.1380360    0.0064950   -0.2151633   -0.6905420   -0.6905479
  -0.0013540    0.1386360    0.0044850   -0.2232082   -0.4852075   -0.8454299
   0.0076130    0.1441540    0.0072260    0.9473352   -0.2107094    0.2411588
   0.0070890    0.1473520    0.0052320    0.8417928   -0.4358284    0.3184942
  -0.0266560    0.1342930   -0.0057090    0.3803814   -0.9188331    0.1051461
  -0.0249340    0.1345070   -0.0087100    0.4897425   -0.8713829    0.0290543
  -0.0223420    0.1347800   -0.0110360    0.5985421   -0.8009672   -0.0141027
  -0.0277860    0.1364570    0.0000000    0.3024432   -0.9493602    0.0851081
  -0.0279580    0.1353150   -0.0024440    0.0608901   -0.9167212    0.3948602
  -0.0196130    0.1358700   -0.0131310    0.6651864   -0.6487808   -0.3696086
  -0.0266560    0.1342930    0.0057090    0.2294693   -0.9695448    0.0855958
  -0.0279580    0.1353150    0.0024440    0.0488943   -0.9847669   -0.1668637
  -0.0249340    0.1345070    0.0087100    0.3292294   -0.9157282    0.2303255
  -0.0223420    0.1347800    0.0110360    0.5265902   -0.7926114    0.3073597
  -0.0190710    0.1392660    0.0074640    0.5010271   -0.7173499   -0.4841291
  -0.0186050    0.1382810    0.0093610    0.6284302   -0.7522831   -0.1978527
  -0.0196130    0.1358700    0.0131310    0.4802608   -0.5182582    0.7076426
  -0.0179460    0.1389860   -0.0136960    0.3795838   -0.3111627   -0.8712600
  -0.0154540    0.1409660   -0.0136970   -0.3572692   -0.3591637   -0.8621833
  -0.0117920    0.1408160   -0.0139610   -0.3263117   -0.7781628   -0.5366408
  -0.0088540    0.1393510   -0.0112090   -0.2664307   -0.9482508   -0.1727282
  -0.0098110    0.1403430   -0.0090010   -0.4015443   -0.9158129    0.0069944
   0.0061740    0.1501100   -0.0432600    0.0035560    0.2057974   -0.9785882
   0.0090690    0.1531780   -0.0458080   -0.8082217   -0.1735298   -0.5627300
   0.0084040    0.1549990   -0.0491980   -0.6443424   -0.7154167   -0.2701884
   0.0175080    0.1569230   -0.0522680   -0.0293193   -0.9992871    0.0237822
   0.0103100    0.1552440   -0.0444900    0.6671853   -0.7172346   -0.2010929
   0.0097390    0.1461070   -0.0348100    0.8548590   -0.4315084    0.2881262
   0.0043060    0.1474250   -0.0452470    0.9046138    0.1016428   -0.4139355
  -0.0026040    0.1445270   -0.0318370    0.5171832   -0.8553531    0.0298765
  -0.0060120    0.1411570   -0.0320300    0.7015467   -0.6586078    0.2721544
   0.0006480    0.1477810   -0.0315450    0.3793901   -0.8348842    0.3987877
   0.0058900    0.1549060   -0.0297590    0.2590891   -0.9656689    0.0188795
   0.0033280    0.1511390   -0.0307350    0.4210088   -0.6012778    0.6791293
  -0.0036670    0.1406710   -0.0384880    0.5773515   -0.2591216    0.7742876
   0.0003630    0.1388540   -0.0409760    0.6333172   -0.1089198    0.7661891
  -0.0078360    0.1374100   -0.0347830    0.5079384   -0.5259060    0.6822180
   0.0023640    0.1372880   -0.0441540    0.9624165   -0.1129406    0.2469797
  -0.0095330    0.1383140   -0.0330090    0.2131326   -0.8177353    0.5346806
   0.0015890    0.1413280   -0.0505300    0.9090424   -0.1827657   -0.3744845
   0.0034860    0.1446400   -0.0489070    0.9366692   -0.1244804   -0.3273460
   0.0307010    0.1467400   -0.0230390   -0.3038455   -0.2767742   -0.9116326
   0.0291110    0.1513850   -0.0226540   -0.2412020   -0.1108991   -0.9641177
   0.0612400    0.1323500   -0.0112400   -0.3091075   -0.8112182    0.4963643
   0.0632450    0.1315100   -0.0113180   -0.2150838   -0.8618459    0.4593044
   0.0652510    0.1309070   -0.0107870   -0.2637205   -0.8553099    0.4459780
   0.0673400    0.1304790   -0.0105620   -0.3417238   -0.8387849    0.4238687
   0.0692800    0.1295600   -0.0101670   -0.4423839   -0.7685936    0.4621259
   0.0788550    0.1231090   -0.0067230   -0.7133449   -0.6750920    0.1881221
   0.0821090    0.1197250   -0.0063240   -0.8085314   -0.5660421    0.1608514
   0.0797080    0.1222890   -0.0051230   -0.7143129   -0.6872415    0.1321220
   0.0821240    0.1173950   -0.0031200   -0.8048530   -0.5535478    0.2140012
   0.0812580    0.1187750   -0.0042540   -0.9620702   -0.1143420   -0.2476828
   0.0818300    0.1190860   -0.0025180   -0.3138593    0.1888702    0.9304947
   0.0867490    0.1131120    0.0080910    0.7874424    0.5071040    0.3503998
   0.0777580    0.1200770    0.0217780    0.1059369   -0.9465119    0.3047830
   0.0758110    0.1315210    0.0193270    0.5045524    0.1585948    0.8486899
   0.0756700    0.1208300    0.0208780    0.4379410   -0.8888346    0.1348363
   0.0757250    0.1190750    0.0175930    0.8777804   -0.4235012    0.2239381
   0.0771600    0.1203040    0.0181270    0.7129145    0.6683755   -0.2121959
   0.0785740    0.1212340    0.0184830    0.6385211   -0.2856029    0.7146481
   0.0809810    0.1223030    0.0176340    0.0206884   -0.7098764    0.7040223
   0.0734560    0.1439810    0.0212660    0.7375061   -0.1773619    0.6516345
   0.0780010    0.1524430    0.0174040    0.9108921   -0.3809642    0.1585616
   0.0820290    0.1184260    0.0179920    0.7952813    0.0367342    0.6051266
   0.0821520    0.1180830    0.0153860    0.9819730    0.1326333    0.1346753
   0.0806010    0.1182890    0.0189290    0.3064161    0.1447390    0.9408293
   0.0820140    0.1176310    0.0132890    0.4454325    0.2797378    0.8504920
   0.0827220    0.1181000    0.0134610    0.1919949    0.2004459    0.9607078
   0.0819230    0.1170650    0.0141310    0.9683850    0.2225627    0.1126780
   0.0871070    0.1112540    0.0114120    0.7103652   -0.7032433    0.0288114
   0.0874780    0.1118240    0.0096050    0.8094988   -0.4879068   -0.3265863
   0.0861000    0.1119290    0.0139130    0.5436706   -0.4508643    0.7079151
   0.0871490    0.1126330    0.0084560    0.9599434   -0.1695735   -0.2230549
   0.0845060    0.1125400    0.0146870   -0.0928167   -0.3123141    0.9454337
   0.0370890    0.1398730    0.0129180   -0.3448978   -0.1290801   -0.9297225
   0.0386690    0.1436840    0.0123380   -0.1636629   -0.0533614   -0.9850721
   0.0364390    0.1344610    0.0128120   -0.4135071   -0.1910826   -0.8902243
   0.0436490    0.1304110    0.0160840   -0.1106790   -0.0302350   -0.9933962
   0.0482670    0.1270930    0.0171420   -0.0779492   -0.5373363   -0.8397581
   0.0427420    0.1305180    0.0140240    0.2689307   -0.9554834    0.1213578
   0.0392850    0.1306740    0.0133720   -0.1955551   -0.8075187   -0.5564816
   0.0613120    0.1324310   -0.0032000   -0.1859132   -0.9824397   -0.0157659
   0.0535210    0.1344540    0.0000000   -0.1251289   -0.9891604   -0.0768402
   0.0604830    0.1333030   -0.0064170   -0.3948822   -0.9079996   -0.1400168
   0.0619360    0.1328790   -0.0063560   -0.3052671   -0.9520727   -0.0192231
   0.0613120    0.1324310    0.0032000   -0.1259920   -0.9902636   -0.0591950
   0.0604830    0.1333030    0.0064170   -0.3421602   -0.9329164    0.1122202
   0.0619360    0.1328790    0.0063560   -0.2536997   -0.9672627   -0.0062737
   0.0612400    0.1323500    0.0112400   -0.3591949   -0.7921117   -0.4934957
   0.0600140    0.1302290    0.0128690   -0.2548933   -0.3769721   -0.8904614
   0.0617280    0.1293900    0.0129950   -0.0687767   -0.4884756   -0.8698628
   0.0266790    0.1551410    0.0146230   -0.7528174   -0.5931974   -0.2852769
   0.0500230    0.1264710    0.0161200   -0.5818636   -0.3365489   -0.7403848
   0.0520090    0.1253500    0.0149040   -0.5224287   -0.4677531   -0.7129342
   0.0541360    0.1240370    0.0146900   -0.2844341   -0.6963151   -0.6589708
   0.0862420    0.1113310    0.0067420   -0.2430104   -0.8369907    0.4902984
   0.0855890    0.1126890    0.0078900    0.0061049   -0.9972438   -0.0739430
   0.0847160    0.1161610    0.0000000   -0.8853265   -0.4187401    0.2021232
   0.0835820    0.1166750   -0.0006570   -0.7334556   -0.4200261    0.5344351
   0.0835820    0.1166750    0.0006570   -0.8171640   -0.3791718   -0.4341333
   0.0821240    0.1173950    0.0031200   -0.8248266   -0.5215669   -0.2182410
   0.0850280    0.1145170    0.0043260   -0.8441459   -0.5353196   -0.0291650
   0.0851580    0.1139270    0.0051820   -0.8437686   -0.4941450   -0.2094641
   0.0854850    0.1127760    0.0059220   -0.7696115   -0.6312849    0.0957997
   0.0849770    0.1172900   -0.0073280    0.2764622    0.9606516    0.0267783
   0.0823900    0.1193790   -0.0038390   -0.7672105   -0.6284315    0.1283038
   0.0843830    0.1176340   -0.0062550   -0.1211791   -0.9568649    0.2640554
   0.0835680    0.1180000   -0.0051680   -0.2978825   -0.9252265    0.2349935
   0.0235330    0.1518730   -0.0510440   -0.6208453   -0.7540113    0.2145184
   0.0266120    0.1511950   -0.0489070   -0.3035548   -0.8129702    0.4969245
   0.0290910    0.1532550   -0.0468160    0.3939989   -0.7394599    0.5458607
   0.0314490    0.1563570   -0.0453920    0.8529536   -0.5147391    0.0866819
   0.0339720    0.1589300   -0.0437550    0.6978994   -0.6826919   -0.2164906
   0.0205850    0.1545690   -0.0518500   -0.4691279   -0.8830977   -0.0075773
   0.0094280    0.1681120   -0.0615250    0.4824487   -0.0568499   -0.8740774
   0.0131590    0.1673990   -0.0591570    0.4204427   -0.2284686   -0.8780832
   0.0212040    0.1698210   -0.0570480    0.3438418   -0.3281893   -0.8798094
   0.0302800    0.1633330   -0.0500900    0.3860412   -0.4119635   -0.8253837
   0.0324560    0.1606520   -0.0475940    0.4507682   -0.6287467   -0.6336290
   0.0358230    0.1600100   -0.0404340    0.5601923   -0.7326762   -0.3864845
   0.0298710    0.1706970   -0.0540590    0.4073487   -0.3544163   -0.8416983
   0.0268520    0.1750220   -0.0569360    0.3616738   -0.3142296   -0.8777539
   0.0340550    0.1659420   -0.0496470    0.4602837   -0.4114339   -0.7866772
   0.0096420    0.1583330   -0.0583310   -0.0552775   -0.9446091   -0.3235091
   0.0077580    0.1574610   -0.0541880    0.0043881   -0.9711926   -0.2382556
   0.0061880    0.1572720   -0.0497850   -0.1287718   -0.9907871   -0.0419368
   0.0072160    0.1592190   -0.0606010    0.2898584   -0.7693679   -0.5692584
   0.0101550    0.1615470   -0.0599930    0.2527453   -0.5129340   -0.8203770
   0.0059940    0.1653440   -0.0622030    0.3324482   -0.1574968   -0.9298779
   0.0409540    0.2104900   -0.0608490    0.4113029   -0.1233987   -0.9031072
   0.0352020    0.2090300   -0.0627640    0.3284211   -0.1229704   -0.9364923
   0.0851440    0.2012500   -0.0206110    0.9271871   -0.2457780   -0.2826964
   0.0833960    0.1970850   -0.0216400    0.8185050   -0.5220029   -0.2399219
   0.0845670    0.2065570   -0.0256600    0.9538969   -0.0015703   -0.3001303
   0.0830160    0.2142020   -0.0252590    0.9371044    0.1797921   -0.2991825
   0.0805430    0.2250170   -0.0257320    0.9589982    0.1270037   -0.2533625
   0.0529300    0.2223560   -0.0547840    0.4694309    0.1585543   -0.8686168
   0.0579790    0.2234150   -0.0516670    0.5087285    0.1860795   -0.8405770
   0.0629320    0.2244100   -0.0483460    0.5318783    0.2158233   -0.8188564
   0.0679140    0.2248680   -0.0449730    0.5913336    0.2159986   -0.7769615
   0.0723840    0.2252440   -0.0408310    0.7006489    0.2021257   -0.6842780
   0.0759970    0.2264290   -0.0360670    0.8171469    0.1968819   -0.5417643
   0.0785380    0.2282830   -0.0307190    0.9087139    0.1963608   -0.3683496
   0.0476810    0.2213530   -0.0575500    0.4350754    0.1395351   -0.8895164
   0.0804080    0.2291510   -0.0248440    0.9572994    0.2121104   -0.1964361
   0.0423530    0.2199240   -0.0600400    0.3652920    0.1313261   -0.9215830
   0.0820220    0.1861230    0.0073050    0.7222841   -0.1736696    0.6694360
   0.0828090    0.1894080    0.0098200    0.7387847   -0.5569475    0.3794821
   0.0837510    0.1916460    0.0123180    0.6899590   -0.6217714    0.3706170
   0.0821100    0.1792240    0.0084980    0.6707525    0.1914130    0.7165558
   0.0831680    0.1685780    0.0117140    0.8234273    0.1054691    0.5575337
   0.0827170    0.1757470    0.0092430    0.6712205    0.2884719    0.6828228
   0.0844980    0.2141430   -0.0187830    0.9645494    0.2295498   -0.1301975
   0.0849800    0.2129240   -0.0121760    0.9665869    0.2559334   -0.0144155
   0.0859220    0.2092530   -0.0065770    0.9724893    0.2326901   -0.0109447
   0.0860930    0.2091630    0.0000000    0.9803030    0.1974995    0.0000658
   0.0859220    0.2092530    0.0065770    0.9798267    0.1974864    0.0306406
   0.0849800    0.2129240    0.0121760    0.9719588    0.2328903    0.0325293
   0.0841820    0.1953410    0.0176550    0.7894559   -0.5355490    0.2999112
   0.0864630    0.1996820    0.0153960    0.9242981   -0.2814375    0.2578099
   0.0867320    0.2065980    0.0190530    0.9833344    0.0854738    0.1604611
   0.0844980    0.2141430    0.0187830    0.9589488    0.2534226    0.1272564
   0.0383270    0.1504050   -0.0146280   -0.3888410   -0.5818745   -0.7143002
   0.0271790    0.1557650   -0.0190610   -0.0240611   -0.4555121   -0.8899044
   0.0219980    0.1576800   -0.0171540   -0.2492829   -0.9538543    0.1673919
   0.0222710    0.1585060   -0.0114340   -0.8592587   -0.5111410   -0.0202328
   0.0228720    0.1593310   -0.0068290   -0.5358370   -0.7757256   -0.3333594
   0.0278630    0.1566660   -0.0024950   -0.0241458   -0.9989658    0.0385262
   0.0259110    0.1575170    0.0000000   -0.0392781   -0.9888307    0.1437747
   0.0278630    0.1566660    0.0024950   -0.0324313   -0.9803980    0.1943398
   0.0228720    0.1593310    0.0068290   -0.5949596   -0.7902683    0.1466258
   0.0222710    0.1585060    0.0114340   -0.8210323   -0.5605325   -0.1082088
   0.0238180    0.1576780    0.0156040   -0.4388447   -0.8966343    0.0588411
   0.0219980    0.1576800    0.0171540   -0.1544603   -0.9856401   -0.0682315
   0.0811380    0.1613410    0.0142370    0.9213410   -0.3349075    0.1974023
   0.0831510    0.1642970    0.0143050    0.9651494   -0.2251631    0.1333724
   0.0347770    0.1424510    0.0124690   -0.6648668    0.0045292   -0.7469482
   0.0329690    0.1426190    0.0148240   -0.5053178    0.0444900    0.8617857
   0.0321810    0.1512920    0.0151100   -0.7985450   -0.5287645    0.2876352
   0.0711670    0.1292900   -0.0091740   -0.3706932   -0.7134028    0.5946790
   0.0729980    0.1295260   -0.0083180   -0.4826873   -0.7616806    0.4322681
   0.0734320    0.1291310   -0.0062640   -0.6089478   -0.7931815    0.0067563
   0.0736740    0.1284620   -0.0042960   -0.6218210   -0.7805902    0.0633841
   0.0296290    0.1573300   -0.0274350   -0.0840657   -0.9964021   -0.0107655
   0.0277990    0.1555880   -0.0232810   -0.3166909   -0.4714493   -0.8230689
   0.0264050    0.1580300   -0.0275970   -0.3015962   -0.8950376    0.3285534
   0.0291990    0.2081320   -0.0642140    0.2512453   -0.1026747   -0.9624623
   0.0238240    0.1824390   -0.0606150    0.3380578   -0.2677005   -0.9022491
   0.0353090    0.1609030   -0.0451550    0.5528541   -0.6124145   -0.5650672
   0.0240230    0.1927030   -0.0632780    0.2662914   -0.1756885   -0.9477460
   0.0376260    0.1582310   -0.0374020    0.5624101   -0.7041768   -0.4333935
   0.0231060    0.2076520   -0.0654430    0.2070777   -0.0777664   -0.9752288
   0.0328660    0.1583940   -0.0388760    0.2552368   -0.9519228    0.1694023
   0.0309190    0.1558190   -0.0403870    0.5155386   -0.8493133    0.1135202
   0.0265080    0.1543230   -0.0356580    0.4905346   -0.8714183    0.0024279
   0.0238120    0.1522840   -0.0364750    0.3589343   -0.9186481    0.1650814
   0.0253430    0.1553270   -0.0288390   -0.1119815   -0.8526771    0.5102960
   0.0295970    0.1530270   -0.0199630   -0.6085212   -0.6072678    0.5108110
   0.0334770    0.1536310   -0.0184920   -0.3441486   -0.4073355    0.8459548
   0.0369630    0.1537410   -0.0166710   -0.4056153   -0.7813984    0.4742286
   0.0031700    0.1420090   -0.0154700    0.6497530   -0.3053615   -0.6961144
   0.0061480    0.1429250   -0.0127120    0.8954329   -0.2644540   -0.3581397
   0.0059000    0.1460270   -0.0113010    0.9881389   -0.1374505   -0.0684754
   0.0074460    0.1486230   -0.0100070    0.7304121   -0.2882648   -0.6191943
   0.0097100    0.1515490   -0.0101930    0.6453911   -0.3914900   -0.6559009
  -0.0013540    0.1386360   -0.0044850   -0.1549662   -0.8531993    0.4980325
  -0.0001930    0.1365600   -0.0074300   -0.0999883   -0.9904834    0.0945774
  -0.0019600    0.1382240   -0.0125230    0.1283201   -0.9330432   -0.3361016
   0.0000790    0.1410830   -0.0171800    0.4693577   -0.8377226   -0.2791491
   0.0110650    0.1545810   -0.0081130    0.7889820   -0.4216308   -0.4469172
   0.0098520    0.1488570   -0.0057650    0.6635733   -0.6410054   -0.3857234
   0.0128100    0.1491530   -0.0020220    0.4485551   -0.7490599   -0.4875526
   0.0127440    0.1475980    0.0000000    0.5227225   -0.8458747   -0.1060999
   0.0128100    0.1491530    0.0020220    0.4872236   -0.8031432    0.3428908
   0.0098520    0.1488570    0.0057650    0.6736807   -0.5665553    0.4745203
   0.0061480    0.1429250    0.0127120    0.8590627   -0.1621437    0.4855108
   0.0031700    0.1420090    0.0154700    0.6460742   -0.2565876    0.7188539
   0.0059000    0.1460270    0.0113010    0.9745318   -0.0693287    0.2132636
   0.0000790    0.1410830    0.0171800    0.5727313   -0.5434168    0.6137402
  -0.0019600    0.1382240    0.0125230    0.1416886   -0.9097144    0.3903128
  -0.0001930    0.1365600    0.0074300   -0.1251118   -0.9822764   -0.1395713
   0.0074460    0.1486230    0.0100070    0.8244302   -0.3296680    0.4600369
   0.0415410    0.1321080    0.0164060    0.2337068   -0.9268483   -0.2938254
   0.0421220    0.1277240    0.0179920    0.5399223    0.1147250   -0.8338597
   0.0409660    0.1314390    0.0188400   -0.0481672   -0.7821234   -0.6212592
   0.0412730    0.1319000    0.0220030   -0.1858316    0.9322609   -0.3104131
   0.0393440    0.1258840    0.0175780   -0.7205592    0.0350963   -0.6925046
   0.0378890    0.1249510    0.0218400   -0.9400881   -0.3009230   -0.1602487
   0.0387600    0.1278140    0.0225000   -0.8220184    0.4960760    0.2796326
   0.0416540    0.1256790    0.0167410   -0.2282126   -0.2691907   -0.9356577
  -0.0088540    0.1393510    0.0112090   -0.2840570   -0.9582296    0.0332828
  -0.0098110    0.1403430    0.0090010   -0.4093356   -0.8632835   -0.2952727
  -0.0061460    0.1385450    0.0100610   -0.2834150   -0.9481643    0.1437373
  -0.0035260    0.1369260    0.0079140   -0.1872564   -0.9819719    0.0258106
   0.0097100    0.1515490    0.0101930    0.7785555   -0.4415814    0.4459341
   0.0110650    0.1545810    0.0081130    0.7772122   -0.3702535    0.5087765
  -0.0281850    0.1352610   -0.0093310    0.1794218   -0.9822351   -0.0549730
  -0.0251170    0.1362120   -0.0111150    0.3679389   -0.9115481   -0.1835786
  -0.0224440    0.1378800   -0.0133040    0.5568227   -0.7985436   -0.2286406
  -0.0200400    0.1404300   -0.0146770    0.5992493   -0.6813919   -0.4202445
  -0.0172970    0.1429940   -0.0141480    0.3807801   -0.5095269   -0.7716144
  -0.0283880    0.1369120    0.0000000   -0.1890119   -0.9747340    0.1190295
  -0.0307510    0.1364320   -0.0009810   -0.2483308   -0.8474790    0.4691600
  -0.0307510    0.1364320    0.0009810   -0.2008316   -0.9093022   -0.3644669
  -0.0316980    0.1356820   -0.0082100   -0.0414401   -0.9965632    0.0717259
  -0.0251170    0.1362120    0.0111150    0.2231074   -0.8859678    0.4065515
  -0.0281850    0.1352610    0.0093310    0.1017084   -0.9697586    0.2218643
  -0.0224440    0.1378800    0.0133040    0.3467231   -0.7581278    0.5522910
  -0.0316980    0.1356820    0.0082100   -0.0813880   -0.9954764    0.0490167
  -0.0200400    0.1404300    0.0146770    0.4980284   -0.6223229    0.6038890
  -0.0172970    0.1429940    0.0141480    0.4004846   -0.4868210    0.7762844
  -0.0160740    0.1408670    0.0076340    0.3478010   -0.7810186   -0.5186949
  -0.0156060    0.1387670    0.0110050    0.5663197   -0.8171084    0.1077769
  -0.0179460    0.1389860    0.0136960    0.2421951   -0.2274838    0.9431822
  -0.0141170    0.1446630   -0.0131870   -0.0339370   -0.6618702   -0.7488499
  -0.0130260    0.1447940   -0.0164960   -0.4639332   -0.8831703    0.0691105
  -0.0105090    0.1430550   -0.0182120   -0.3433202   -0.9255964   -0.1593817
  -0.0071460    0.1415650   -0.0178930   -0.1024505   -0.9864343   -0.1282624
  -0.0084790    0.1401670   -0.0139710   -0.2389985   -0.9031873   -0.3565564
  -0.0061460    0.1385450   -0.0100610   -0.3536299   -0.9310073   -0.0903955
  -0.0069260    0.1383630   -0.0081500   -0.4629331   -0.8812829    0.0950444
   0.0030260    0.1551250   -0.0469380    0.9259149   -0.2910154   -0.2408147
   0.0044400    0.1577920   -0.0425950    0.5016480   -0.5477357   -0.6695781
   0.0049240    0.1584670   -0.0451210   -0.2096000   -0.9776981   -0.0132042
   0.0131750    0.1563330   -0.0459120   -0.0807216   -0.9544537   -0.2872320
   0.0083200    0.1492340   -0.0360360    0.8847049    0.3492618    0.3087287
   0.0082460    0.1521720   -0.0382760    0.5857877   -0.7181402   -0.3756693
   0.0095010    0.1551300   -0.0400320    0.7346014   -0.6753763   -0.0650212
   0.0099720    0.1528390   -0.0326210    0.0615532   -0.8337272   -0.5487351
   0.0098970    0.1517170   -0.0284280   -0.3570140   -0.6486489   -0.6721574
   0.0021430    0.1520630   -0.0503700    0.8571993   -0.4274942   -0.2871553
   0.0010440    0.1488960   -0.0538470    0.8135716   -0.2501694   -0.5248967
  -0.0060730    0.1408230   -0.0295410    0.5188930   -0.8423113    0.1458144
  -0.0090420    0.1388660   -0.0315690    0.3419120   -0.9190104    0.1962549
  -0.0127110    0.1366340   -0.0319080    0.3273778   -0.9383251    0.1112195
  -0.0031670    0.1385610   -0.0274160    0.3341588   -0.9279005    0.1653437
   0.0005730    0.1398700   -0.0262870    0.3466691   -0.9369419   -0.0442776
   0.0012470    0.1446340   -0.0261010    0.2494587    0.0206578    0.9681651
  -0.0054450    0.1373390   -0.0377320    0.4190855   -0.4247652    0.8024599
  -0.0021460    0.1367870   -0.0401940    0.5566268   -0.3956622    0.7304917
  -0.0107330    0.1360820   -0.0352410    0.2450084   -0.3898165    0.8877015
   0.0021420    0.1332590   -0.0430710    0.7814923    0.1441631    0.6070311
   0.0014480    0.1371790   -0.0494850    0.9868463    0.0475271   -0.1545170
  -0.0136530    0.1376870   -0.0357800   -0.1881124   -0.8498333    0.4923384
  -0.0136380    0.1351570   -0.0360660   -0.1375698   -0.2529880    0.9576386
  -0.0014380    0.1401150   -0.0553940    0.6327505   -0.1499626   -0.7596960
  -0.0008690    0.1448080   -0.0557510    0.7060558   -0.1766178   -0.6857779
   0.0262930    0.1552400   -0.0216230   -0.2558745   -0.5285038   -0.8094516
   0.0232690    0.1570700   -0.0232330    0.1089729   -0.5753949   -0.8105835
   0.0633780    0.1325450   -0.0064210   -0.2469951   -0.9677165    0.0501809
   0.0648280    0.1322640   -0.0066120   -0.2446935   -0.9666211    0.0759527
   0.0663620    0.1321080   -0.0065950   -0.2349515   -0.9647977    0.1181661
   0.0678630    0.1320320   -0.0060820   -0.1971001   -0.9612989    0.1924992
   0.0802840    0.1224130   -0.0031610   -0.6951419   -0.6661695    0.2701777
   0.0742670    0.1285640   -0.0021240   -0.5620335   -0.8163181    0.1332035
   0.0825800    0.1189900   -0.0013520   -0.6332847    0.5415469    0.5528810
   0.0851190    0.1177940   -0.0016250   -0.3946675    0.8724989   -0.2880679
   0.0836530    0.1178700   -0.0035020   -0.4615436   -0.7391952    0.4904773
   0.0747650    0.1204040    0.0228020    0.3277742   -0.7601696    0.5609869
   0.0749380    0.1208710    0.0218070    0.3884267   -0.8089854    0.4412112
   0.0730980    0.1209140    0.0222090    0.3214855   -0.6386882    0.6990883
   0.0705340    0.1329270    0.0217360    0.5914359   -0.0146313    0.8062193
   0.0757250    0.1181730    0.0204530    0.9258250   -0.0435197    0.3754385
   0.0753480    0.1177970    0.0185700    0.9808174    0.0254852    0.1932556
   0.0747130    0.1181500    0.0221210    0.6508750    0.0030235    0.7591789
   0.0756290    0.1178100    0.0176020    0.3650810    0.1951216    0.9102985
   0.0782550    0.1176020    0.0192210   -0.1668991    0.1298104    0.9773914
   0.0778920    0.1531970    0.0236830    0.6293807   -0.6959184    0.3457999
   0.0732130    0.1486380    0.0237030    0.9182199   -0.3224628    0.2299780
   0.0697610    0.1411920    0.0263160    0.8941036   -0.3423196    0.2887837
   0.0744040    0.1516480    0.0228900    0.7229275   -0.5681536    0.3931632
   0.0815770    0.1570820    0.0201120    0.9603073   -0.1466321   -0.2372951
   0.0819920    0.1538140    0.0205660    0.8683901   -0.4858543    0.0992179
   0.0816130    0.1124280    0.0172720    0.6797904   -0.6351598    0.3666840
   0.0824070    0.1128280    0.0160060    0.7535642   -0.6573655   -0.0034022
   0.0794950    0.1124750    0.0186290   -0.0199187   -0.5825219    0.8125709
   0.0806360    0.1119000    0.0178190    0.3401254   -0.8046740    0.4866359
   0.0827690    0.1134500    0.0144260    0.7594417   -0.4393989    0.4797675
   0.0779730    0.1137580    0.0190280   -0.1000134   -0.5547864    0.8259597
   0.0827580    0.1131590    0.0142460   -0.1005115   -0.3497549    0.9314338
   0.0851630    0.1113310    0.0096090   -0.2983016   -0.8629721   -0.4077932
   0.0853040    0.1110350    0.0106540   -0.2573782   -0.9631273   -0.0783728
   0.0843040    0.1113640    0.0127380   -0.3028170   -0.9519305    0.0461548
   0.0829410    0.1119000    0.0132980   -0.4430635   -0.7885217    0.4265305
   0.0343340    0.1375260    0.0137130   -0.8629240   -0.0033432    0.5053227
   0.0351450    0.1344060    0.0141860   -0.8731566   -0.4179017    0.2509098
   0.0368070    0.1306620    0.0139860   -0.0594150   -0.9822112    0.1781323
   0.0424620    0.1243230    0.0168160   -0.0262431   -0.4134396   -0.9101533
   0.0444100    0.1234940    0.0175480    0.2456561   -0.6578859   -0.7119264
   0.0449420    0.1227700    0.0191860    0.5743369   -0.7533244   -0.3203740
   0.0469360    0.1275020    0.0185300   -0.1396240   -0.7457584   -0.6514211
   0.0638440    0.1322540   -0.0026050   -0.1843379   -0.9828608   -0.0020306
   0.0552850    0.1345100    0.0000000   -0.1711051   -0.9851321   -0.0154201
   0.0638440    0.1322540    0.0026050   -0.1399565   -0.9871004   -0.0777490
   0.0633780    0.1325450    0.0064210   -0.2166114   -0.9735352   -0.0728616
   0.0648280    0.1322640    0.0066120   -0.2158303   -0.9688193   -0.1216815
   0.0632450    0.1315100    0.0113180   -0.3421983   -0.8308811   -0.4387903
   0.0652510    0.1309070    0.0107870   -0.2934195   -0.8451299   -0.4468338
   0.0636990    0.1290260    0.0132540   -0.0470725   -0.6299120   -0.7752387
   0.0565700    0.1235350    0.0148500   -0.1191452   -0.9670563   -0.2249590
   0.0589610    0.1232960    0.0154110   -0.0761296   -0.9921872   -0.0988375
   0.0299850    0.1537270    0.0170230   -0.2898976   -0.5433352    0.7878745
   0.0486670    0.1258960    0.0179670   -0.5902337   -0.3376606   -0.7332186
   0.0505230    0.1253930    0.0166830   -0.5043458   -0.4766326   -0.7200394
   0.0514760    0.1253900    0.0159960   -0.2825893   -0.7278829   -0.6247637
   0.0533940    0.1243160    0.0167880    0.3079780   -0.8656591   -0.3946947
   0.0851370    0.1127870    0.0080900   -0.6456993   -0.6902155   -0.3266112
   0.0846570    0.1184640    0.0000000   -0.6648036    0.7469353   -0.0111326
   0.0825800    0.1189900    0.0013520   -0.5838265    0.5534351   -0.5940170
   0.0828380    0.1165670    0.0055150   -0.8506547   -0.5229498   -0.0539458
   0.0818300    0.1190860    0.0025180   -0.2270144    0.9730345   -0.0408460
   0.0812580    0.1187750    0.0042540   -0.9246335   -0.0645668    0.3753453
   0.0836230    0.1160150    0.0068790   -0.8811525   -0.4693152   -0.0575633
   0.0836340    0.1190340   -0.0017620   -0.6652986   -0.5957342    0.4499763
   0.0812270    0.1228500   -0.0014470   -0.6521541   -0.6783166    0.3384992
   0.0157940    0.1586130   -0.0462460   -0.1143603   -0.9805663    0.1594100
   0.0187320    0.1587070   -0.0458390   -0.4089193   -0.8884249    0.2085336
   0.0206330    0.1554260   -0.0452230   -0.5240343   -0.8001196    0.2918846
   0.0229980    0.1530830   -0.0445520   -0.1487843   -0.8406731    0.5207034
   0.0261910    0.1524410   -0.0439790    0.1513377   -0.8715613    0.4663452
   0.0286670    0.1535750   -0.0418570    0.3919879   -0.8944962    0.2149931
   0.0060300    0.1735100   -0.0634520    0.3143348   -0.2249531   -0.9222742
  -0.0003810    0.1721500   -0.0649420    0.2090921   -0.1550718   -0.9655223
   0.0119400    0.1764670   -0.0624390    0.3441326   -0.2757688   -0.8975101
   0.0178210    0.1796530   -0.0618200    0.3134047   -0.2907845   -0.9040033
   0.0032130    0.1558860   -0.0584400    0.4121208   -0.8572618   -0.3086400
   0.0008770    0.1540530   -0.0570260    0.5831672   -0.8006116   -0.1376121
  -0.0016010    0.1600780   -0.0644310    0.3424898   -0.3378241   -0.8766844
   0.0022580    0.1569930   -0.0606040    0.3731595   -0.6988683   -0.6101927
  -0.0059010    0.1751210   -0.0667460    0.1587797   -0.0810009   -0.9839857
   0.0369330    0.2185550   -0.0622430    0.2885208    0.1345999   -0.9479655
   0.0312870    0.2187510   -0.0640860    0.2919284    0.1151524   -0.9494829
   0.0817910    0.2261390   -0.0194880    0.9787919    0.1726567   -0.1102545
   0.0810760    0.2296890   -0.0186850    0.9602069    0.2676827   -0.0796784
   0.0465240    0.2315330   -0.0548220    0.3929066    0.3580739   -0.8469991
   0.0516930    0.2314420   -0.0523260    0.4257660    0.3702581   -0.8256102
   0.0567190    0.2315630   -0.0495490    0.4698747    0.3899147   -0.7919497
   0.0615440    0.2318880   -0.0464000    0.4972118    0.4086068   -0.7653894
   0.0662370    0.2323900   -0.0430750    0.5438387    0.4314943   -0.7197584
   0.0706060    0.2328940   -0.0392750    0.6206639    0.4430434   -0.6469072
   0.0739890    0.2343360   -0.0347020    0.7169182    0.4495179   -0.5328807
   0.0764940    0.2351610   -0.0294300    0.8172393    0.4713459   -0.3315916
   0.0780990    0.2349460   -0.0236910    0.8607438    0.4841728   -0.1571522
   0.0413890    0.2312900   -0.0573670    0.3322595    0.3674334   -0.8686750
   0.0788660    0.2347280   -0.0177750    0.8799536    0.4635869   -0.1037730
   0.0359380    0.2307900   -0.0588050    0.2331818    0.3716080   -0.8986288
   0.0783960    0.1833180    0.0111450    0.5747105   -0.1061460    0.8114437
   0.0783700    0.1873140    0.0129890    0.5520569   -0.5747186    0.6040958
   0.0798270    0.1901780    0.0151400    0.3334823   -0.7035485    0.6275421
   0.0817630    0.1939820    0.0183240    0.3587759   -0.8009518    0.4793289
   0.0805330    0.1726710    0.0114940    0.3031169    0.3158008    0.8991051
   0.0809920    0.1688830    0.0142420    0.3197586    0.5359331    0.7813643
   0.0801060    0.1655780    0.0173230    0.4618983    0.6195525    0.6346689
   0.0822250    0.2258930   -0.0129710    0.9752708    0.2159499   -0.0470379
   0.0825310    0.2253940   -0.0064950    0.9768582    0.2089461   -0.0457118
   0.0827400    0.2255890    0.0000000    0.9817991    0.1899219   -0.0005407
   0.0825310    0.2253940    0.0064950    0.9808001    0.1897592    0.0449745
   0.0822250    0.2258930    0.0129710    0.9770251    0.2079375    0.0467324
   0.0817910    0.2261390    0.0194880    0.9698999    0.2158728    0.1126637
   0.0833960    0.1970850    0.0216400    0.8736003   -0.4542857    0.1744909
   0.0851440    0.2012500    0.0206110    0.9397745   -0.2114789    0.2685156
   0.0820900    0.1953200    0.0221990    0.4234344   -0.8971057    0.1261140
   0.0845670    0.2065570    0.0256600    0.9480048    0.0781610    0.3085090
   0.0830160    0.2142020    0.0252590    0.9265342    0.2212238    0.3042935
   0.0805430    0.2250170    0.0257320    0.9491306    0.1799281    0.2584125
   0.0240680    0.1574260   -0.0190880   -0.8657730   -0.3530005   -0.3547221
   0.0221900    0.1627310   -0.0104480   -0.8386456   -0.3153362   -0.4441132
   0.0202380    0.1571070   -0.0144990   -0.8312817    0.5554220    0.0218439
   0.0198360    0.1582230   -0.0070290   -0.0671732   -0.5629241   -0.8237744
   0.0244690    0.1568390   -0.0022850    0.4045715   -0.9095718   -0.0948741
   0.0223920    0.1569130    0.0000000    0.3065844   -0.9495147    0.0665420
   0.0244690    0.1568390    0.0022850    0.3906226   -0.8914230    0.2297367
   0.0198360    0.1582230    0.0070290   -0.1058063   -0.6749570    0.7302315
   0.0221900    0.1627310    0.0104480   -0.8505187   -0.5129380   -0.1162437
   0.0271790    0.1557650    0.0190610   -0.0858398   -0.4606498    0.8834213
   0.0240680    0.1574260    0.0190880   -0.8033199   -0.4357340    0.4059718
   0.0202380    0.1571070    0.0144990   -0.3496717    0.1683186   -0.9216282
   0.0808690    0.1601070    0.0206720    0.9425546    0.1968447    0.2698945
   0.0378110    0.1411530    0.0147370   -0.1913647    0.0822118    0.9780699
   0.0410820    0.1445400    0.0145450   -0.3236950   -0.3655338    0.8727008
   0.0367860    0.1462380    0.0150820    0.0352813   -0.1575854    0.9868749
   0.0686630    0.1316160   -0.0049660   -0.3269732   -0.9449331    0.0137796
   0.0689610    0.1310910   -0.0034750   -0.4082451   -0.9051564   -0.1184391
   0.0695940    0.1310150   -0.0020540   -0.3825460   -0.9239310   -0.0031720
   0.0700250    0.1308560   -0.0005650   -0.4014130   -0.9134050    0.0675200
   0.0252150    0.1602600   -0.0233400   -0.2453436   -0.5824770   -0.7749368
   0.0230100    0.1624000   -0.0251750   -0.1229382   -0.7655160    0.6315627
   0.0254790    0.2190590   -0.0654910    0.2404074    0.1020490   -0.9652928
   0.0179450    0.1921710   -0.0652000    0.2509557   -0.1637776   -0.9540430
   0.0170290    0.2070410   -0.0665770    0.1986673   -0.0598282   -0.9782392
   0.0196700    0.2182780   -0.0666330    0.1934057    0.0973290   -0.9762793
   0.0206070    0.1524220   -0.0374270   -0.0771311   -0.9311665    0.3563421
   0.0186980    0.1552940   -0.0386540   -0.5048173   -0.8452868    0.1750708
   0.0236810    0.1543190   -0.0312870    0.3116915   -0.8036826    0.5068951
   0.0207610    0.1526950   -0.0321630   -0.1645580   -0.9836354    0.0733622
   0.0202920    0.1569510   -0.0189510    0.5547033   -0.2620283    0.7897122
   0.0220220    0.1602530   -0.0197340   -0.1382060   -0.4731449    0.8700764
   0.0022870    0.1462230   -0.0159300    0.9779687   -0.2001009    0.0594715
   0.0004830    0.1494250   -0.0136700    0.9498663   -0.2731881   -0.1520599
   0.0036910    0.1496310   -0.0151100    0.2878379   -0.4599883   -0.8399762
   0.0063060    0.1524910   -0.0145530    0.6648072   -0.6655924   -0.3391433
   0.0075140    0.1561180   -0.0129870    0.7649370   -0.6440032   -0.0114561
   0.0106950    0.1571880   -0.0110190    0.5160349   -0.8171962   -0.2567068
   0.0133510    0.1598300   -0.0106190    0.6783065   -0.7343878    0.0239767
  -0.0042050    0.1380360   -0.0064950   -0.2818207   -0.8265761    0.4871848
  -0.0035260    0.1369260   -0.0079140   -0.2706928   -0.9552269    0.1194446
  -0.0052730    0.1390620   -0.0134630   -0.1225449   -0.9409694   -0.3155303
  -0.0034520    0.1409030   -0.0179540    0.1263896   -0.9892841    0.0730932
   0.0005860    0.1431600   -0.0177170    0.4372806   -0.8776529    0.1962425
   0.0152480    0.1634780   -0.0103250    0.6109935   -0.7858314    0.0956870
   0.0135810    0.1572580   -0.0070020    0.3589686   -0.4159753   -0.8355274
   0.0124390    0.1511700   -0.0064810    0.4716799   -0.5258698   -0.7077988
   0.0157730    0.1510080   -0.0020940    0.6722915   -0.6966848   -0.2503086
   0.0155180    0.1494330    0.0000000    0.7340510   -0.6482339    0.2023908
   0.0157730    0.1510080    0.0020940    0.6300867   -0.5960693    0.4976868
   0.0124390    0.1511700    0.0064810    0.4575756   -0.4374910    0.7740970
   0.0135810    0.1572580    0.0070020    0.3745865   -0.4337399    0.8194844
   0.0063060    0.1524910    0.0145530    0.6766360   -0.7090410    0.1985563
   0.0036910    0.1496310    0.0151100    0.3530659   -0.5714008    0.7408412
   0.0004830    0.1494250    0.0136700    0.9498663   -0.2731881    0.1520599
   0.0022870    0.1462230    0.0159300    0.9846000   -0.1244963    0.1227335
   0.0075140    0.1561180    0.0129870    0.7804555   -0.6232758    0.0491587
   0.0005860    0.1431600    0.0177170    0.6475208   -0.7042260    0.2911744
  -0.0034520    0.1409030    0.0179540    0.3625293   -0.7700199    0.5250161
  -0.0052730    0.1390620    0.0134630   -0.1180060   -0.9247201    0.3618941
   0.0106950    0.1571880    0.0110190    0.5557317   -0.8258534    0.0955428
   0.0397710    0.1324590    0.0146030    0.0765176   -0.8305033    0.5517331
   0.0462270    0.1323780    0.0233950   -0.3856881    0.5721731    0.7237836
   0.0403340    0.1279840    0.0216430   -0.8691891    0.2460888    0.4288947
   0.0394380    0.1298580    0.0216240   -0.9218997   -0.3731862    0.1040816
   0.0421350    0.1345760    0.0160880   -0.8357591   -0.5031998    0.2197652
   0.0426240    0.1317380    0.0238050   -0.3544380    0.6821788    0.6395356
   0.0394370    0.1244540    0.0181180   -0.6128816   -0.6680233   -0.4220439
   0.0389890    0.1264420    0.0245000   -0.8103314    0.0020859    0.5859682
   0.0389690    0.1251000    0.0230710   -0.7278993   -0.6670646    0.1587055
   0.0402400    0.1248900    0.0204950   -0.4761490   -0.8216878    0.3132273
   0.0412980    0.1248000    0.0217750   -0.5770604   -0.8079679    0.1191186
   0.0404330    0.1276190    0.0248050   -0.4368516    0.5214248    0.7329917
   0.0410280    0.1222020    0.0191400   -0.5832642   -0.7834970   -0.2143254
   0.0402480    0.1233990    0.0183700   -0.6975092   -0.6379854   -0.3262753
  -0.0117920    0.1408160    0.0139610   -0.3362332   -0.8440340    0.4177964
  -0.0154540    0.1409660    0.0136970   -0.3979433   -0.3962880    0.8274038
  -0.0122690    0.1397520    0.0112030    0.1259305   -0.9904294    0.0564903
  -0.0084790    0.1401670    0.0139710   -0.2419778   -0.9046512    0.3507891
  -0.0129560    0.1415930    0.0080720    0.0287058   -0.8573281   -0.5139693
   0.0133510    0.1598300    0.0106190    0.6887374   -0.7131006   -0.1308751
   0.0152480    0.1634780    0.0103250    0.5876923   -0.8039312   -0.0911724
  -0.0315900    0.1362400   -0.0147030   -0.0446104   -0.9983747   -0.0354651
  -0.0280190    0.1370670   -0.0159220    0.0981412   -0.9927431   -0.0694942
  -0.0245650    0.1384240   -0.0169280    0.2885868   -0.9561289   -0.0503500
  -0.0212290    0.1403670   -0.0169830    0.4730067   -0.8810582   -0.0010433
  -0.0182540    0.1427390   -0.0158560    0.5073326   -0.8575999   -0.0844749
  -0.0154130    0.1451640   -0.0166190    0.2499309   -0.9681903   -0.0119180
  -0.0316480    0.1373260    0.0000000   -0.2593758   -0.9657476    0.0074700
  -0.0340420    0.1371790   -0.0019080   -0.3907623   -0.8797990    0.2706630
  -0.0351810    0.1370600   -0.0078030   -0.3359039   -0.9363153    0.1023828
  -0.0348000    0.1386460    0.0000000   -0.3838621   -0.9233792    0.0045508
  -0.0351810    0.1370600    0.0078030   -0.3509674   -0.9328277   -0.0815748
  -0.0340420    0.1371790    0.0019080   -0.3892190   -0.8709351   -0.2999677
  -0.0353030    0.1360980   -0.0137120   -0.2762763   -0.9608843    0.0193091
  -0.0245650    0.1384240    0.0169280    0.3039274   -0.9526408    0.0101832
  -0.0280190    0.1370670    0.0159220    0.1001210   -0.9948795    0.0138041
  -0.0212290    0.1403670    0.0169830    0.4904878   -0.8714445   -0.0024924
  -0.0315900    0.1362400    0.0147030   -0.0677916   -0.9972114    0.0312061
  -0.0182540    0.1427390    0.0158560    0.5578382   -0.8265282   -0.0752840
  -0.0353030    0.1360980    0.0137120   -0.2866740   -0.9578096    0.0204647
  -0.0154130    0.1451640    0.0166190    0.2984016   -0.9476389   -0.1137412
  -0.0141170    0.1446630    0.0131870   -0.0339370   -0.6618702    0.7488499
  -0.0136180    0.1433130   -0.0199740    0.0387971   -0.9240855    0.3802115
  -0.0105190    0.1421640   -0.0200530   -0.1003044   -0.8978487    0.4287268
  -0.0066530    0.1423130   -0.0199610   -0.0567302   -0.9287133    0.3664332
  -0.0029640    0.1421600   -0.0189680    0.1222979   -0.9708203    0.2062795
  -0.0025730    0.1527750   -0.0598190    0.4790291   -0.7261660   -0.4931674
   0.0105500    0.1584280   -0.0407170    0.5217748   -0.8527140   -0.0250977
   0.0102860    0.1554600   -0.0355030    0.3922673   -0.7585196   -0.5203598
   0.0125140    0.1549420   -0.0352490    0.1413398   -0.8548634   -0.4992309
   0.0131150    0.1509250   -0.0290450    0.5779300   -0.5561370   -0.5972509
   0.0002680    0.1501080   -0.0271830    0.8876734   -0.1016281    0.4491187
   0.0023870    0.1504630   -0.0258810    0.6433747   -0.4732660   -0.6017377
  -0.0057490    0.1494280   -0.0591610    0.2036567   -0.4545004   -0.8671524
  -0.0065070    0.1450410   -0.0585820    0.2342409   -0.1873419   -0.9539571
  -0.0134240    0.1405390   -0.0254590    0.1251867   -0.8617043    0.4917255
  -0.0171870    0.1396400   -0.0243870    0.3406492   -0.8239299    0.4528770
  -0.0173680    0.1375880   -0.0359620   -0.4237287   -0.8262404    0.3711884
  -0.0166910    0.1356970   -0.0311680    0.2026600   -0.9564540    0.2100589
  -0.0205290    0.1384690   -0.0233250    0.3717070   -0.8401192    0.3950110
  -0.0099890    0.1409810   -0.0251900    0.0022841   -0.7330923    0.6801253
  -0.0074060    0.1410510   -0.0225650    0.0772841   -0.5488128    0.8323651
  -0.0040960    0.1418590   -0.0211410    0.4265029   -0.8610906    0.2768000
  -0.0078800    0.1351370   -0.0371040    0.1437564   -0.8832852    0.4462525
  -0.0055740    0.1365060   -0.0399990    0.2803083   -0.8493626    0.4472253
   0.0008930    0.1292500   -0.0427070    0.6221438   -0.2183121    0.7518490
   0.0022570    0.1333290   -0.0475570    0.9980927    0.0487991   -0.0378094
  -0.0007390    0.1356020   -0.0535420    0.6395800   -0.3391239   -0.6898786
  -0.0166770    0.1352920   -0.0370070   -0.3041386   -0.3032226    0.9030813
  -0.0113060    0.1342900   -0.0373800    0.0432340   -0.9295372    0.3661850
  -0.0038030    0.1363970   -0.0556180    0.1668751   -0.4568316   -0.8737606
  -0.0043410    0.1389650   -0.0565200    0.1788437   -0.2553064   -0.9501756
  -0.0053100    0.1418180   -0.0573450    0.2106434   -0.1686207   -0.9629104
   0.0141740    0.1554400   -0.0165630    0.2045633   -0.9667973    0.1531560
   0.0178280    0.1563760   -0.0167820    0.4955254   -0.6055150    0.6227409
   0.0112600    0.1539630   -0.0157770    0.1497132   -0.9839654    0.0969433
   0.0197860    0.1566230   -0.0256810    0.3137413   -0.6874998   -0.6549125
   0.0739560    0.1284320    0.0000000   -0.5463153   -0.8375673    0.0045332
   0.0701060    0.1309800    0.0000000   -0.4447979   -0.8844913   -0.1408192
   0.0824600    0.1236330    0.0000000   -0.7022701   -0.7119097    0.0010890
   0.0849010    0.1194070    0.0000000   -0.9195099   -0.3929769    0.0084047
   0.0683590    0.1215810    0.0247220    0.1745517   -0.8528916    0.4920444
   0.0678550    0.1218170    0.0235070    0.2727718   -0.7963848    0.5397841
   0.0696780    0.1207850    0.0220920    0.5403821   -0.5717275    0.6173450
   0.0703530    0.1196120    0.0206580    0.3896113    0.2783667    0.8779038
   0.0712630    0.1202170    0.0215480   -0.3805967    0.9020660   -0.2035265
   0.0730770    0.1182860    0.0230010   -0.0576594    0.1630423    0.9849328
   0.0711050    0.1185720    0.0221220   -0.6539915    0.3046519    0.6924466
   0.0654530    0.1232150    0.0259680    0.4678665   -0.5096093    0.7220798
   0.0676020    0.1327320    0.0250550    0.7533251   -0.1912531    0.6292245
   0.0675210    0.1358910    0.0265920    0.8616065   -0.3487775    0.3687661
   0.0754430    0.1143310    0.0202690    0.6659528   -0.6189014    0.4164948
   0.0759550    0.1142690    0.0190870    0.3715003   -0.4520771    0.8109339
   0.0742100    0.1143290    0.0219140    0.5504581   -0.5709782    0.6090811
   0.0723280    0.1138440    0.0221840   -0.0962995   -0.5249100    0.8456926
   0.0799610    0.1576580    0.0252800    0.9560735   -0.0729369    0.2839080
   0.0771640    0.1551820    0.0310310    0.7703429   -0.6278297    0.1113626
   0.0739620    0.1497970    0.0281220    0.8308240   -0.5563316   -0.0150541
   0.0711640    0.1449190    0.0346100    0.9036713   -0.4239929    0.0600680
   0.0681870    0.1398630    0.0321210    0.8807730   -0.4647601    0.0907584
   0.0798860    0.1118470    0.0148860    0.0249737   -0.8690119   -0.4941605
   0.0806420    0.1123960    0.0143150    0.1987703   -0.6848478   -0.7010520
   0.0785980    0.1110680    0.0164500   -0.2934326   -0.8820538   -0.3686168
   0.0818740    0.1134910    0.0141410   -0.1570027   -0.9860532    0.0552202
   0.0759830    0.1141090    0.0183830   -0.1431749   -0.9421346    0.3031225
   0.0755490    0.1141030    0.0181270   -0.2002621   -0.9442775    0.2612184
   0.0766120    0.1121590    0.0168690   -0.5195110   -0.8257956    0.2194765
   0.0834020    0.1127530    0.0104580   -0.7105614   -0.6334369   -0.3063661
   0.0821790    0.1130450    0.0123010   -0.6643745   -0.6700249   -0.3311694
   0.0812430    0.1140460    0.0139990   -0.4076697   -0.5925668   -0.6947445
   0.0377710    0.1362150    0.0146180   -0.2529068   -0.0634432    0.9654083
   0.0406870    0.1375430    0.0149330   -0.4750306   -0.2064182    0.8554165
   0.0422920    0.1214350    0.0198400   -0.1379750   -0.9872005   -0.0799879
   0.0450870    0.1228250    0.0206370    0.1801210   -0.9614583   -0.2077364
   0.0458340    0.1234280    0.0203040   -0.0231293   -0.5144851   -0.8571873
   0.0433530    0.1216870    0.0215280    0.2390321   -0.9036196    0.3554368
   0.0476780    0.1215840    0.0176020   -0.5507741   -0.2691797   -0.7900570
   0.0643850    0.1324290   -0.0013750   -0.2657390   -0.9635345    0.0313678
   0.0571060    0.1342530    0.0000000   -0.2278407   -0.9736832   -0.0054359
   0.0643850    0.1324290    0.0013750   -0.2294871   -0.9605114   -0.1573326
   0.0663620    0.1321080    0.0065950   -0.2430335   -0.9568174   -0.1594839
   0.0678630    0.1320320    0.0060820   -0.1826992   -0.9684179   -0.1696699
   0.0686630    0.1316160    0.0049660   -0.2438013   -0.9647260   -0.0993209
   0.0689610    0.1310910    0.0034750   -0.3774460   -0.9259897   -0.0088087
   0.0673400    0.1304790    0.0105620   -0.3442562   -0.8194937   -0.4581677
   0.0692800    0.1295600    0.0101670   -0.4512589   -0.7415635   -0.4964363
   0.0655350    0.1284630    0.0136660   -0.0700418   -0.6625118   -0.7457696
   0.0669270    0.1270970    0.0142400   -0.2394827   -0.5307182   -0.8130106
   0.0613530    0.1235600    0.0160400   -0.1261031   -0.9588865   -0.2542334
   0.0564510    0.1247230    0.0156150   -0.5565096   -0.8041380   -0.2089477
   0.0542890    0.1242740    0.0170730   -0.4780105   -0.7855946   -0.3928704
   0.0601940    0.1244510    0.0175340    0.2957349   -0.6751225   -0.6758331
   0.0383270    0.1504050    0.0146280   -0.0362424   -0.6582358    0.7519389
   0.0507560    0.1198370    0.0171150   -0.0356382   -0.4986158   -0.8660902
   0.0520850    0.1198560    0.0178950    0.5392743   -0.5771396   -0.6132643
   0.0529430    0.1199760    0.0188840   -0.0666944   -0.7247724   -0.6857528
   0.0812520    0.1182300    0.0075380   -0.6672410   -0.3576391   -0.6533634
   0.0830460    0.1173470    0.0068190   -0.7802971   -0.5604158   -0.2776159
   0.0800270    0.1181760    0.0089540   -0.8194841   -0.4109837   -0.3994225
