NORM_ASCII
1459 1796
   0.0655760    0.0936380    0.0259170    0.8400641    0.0388886    0.5410914
   0.0693270    0.1080520    0.0233420    0.5570266   -0.0413097    0.8294666
   0.0641740    0.0906300    0.0269410    0.6897295   -0.1901371    0.6986566
   0.0772490    0.1081580    0.0189970    0.7168661   -0.2348903    0.6564522
   0.0752060    0.1088930    0.0200980    0.3784738    0.0716404    0.9228354
   0.0741320    0.1094230    0.0206370    0.6743928    0.1267612    0.7274104
   0.0729160    0.1092220    0.0218690    0.5907917   -0.1078484    0.7995836
   0.0615500    0.0894710    0.0284870    0.4965397   -0.4106129    0.7647519
   0.0772990    0.1094730    0.0189470    0.7183836   -0.1823446    0.6713236
   0.0563960    0.0890480    0.0298420    0.0857333   -0.7158613    0.6929592
   0.0531200    0.0885320    0.0279900   -0.2877279   -0.8760585    0.3869551
   0.0793140    0.1131690    0.0171970    0.9543774   -0.2915683    0.0644338
   0.0788250    0.1131490    0.0191640    0.7462194   -0.2076140    0.6324975
   0.0795740    0.1152480   -0.0177960    0.7702081    0.1796813   -0.6119592
   0.0753940    0.1104130   -0.0187050    0.1249774    0.1022441   -0.9868773
   0.0772150    0.1141110   -0.0189560    0.0405046   -0.0034252   -0.9991735
   0.0771400    0.1165800   -0.0186070    0.0569449    0.3541997   -0.9334344
   0.0729770    0.0787690   -0.0046570   -0.0542549   -0.9985200    0.0037653
   0.0727450    0.0794430    0.0004690   -0.2252112   -0.9733300    0.0436885
   0.0722390    0.0786340   -0.0095710   -0.1580032   -0.9868910    0.0328804
   0.0729770    0.0787690    0.0055570   -0.2844675   -0.9586195    0.0112664
   0.0693430    0.0795230   -0.0128510   -0.3740507   -0.9170530    0.1382021
   0.0722390    0.0786340    0.0104710   -0.1296405   -0.9895128    0.0637002
   0.0664020    0.0807000   -0.0158960   -0.4958180   -0.8488252    0.1834675
   0.0693430    0.0795230    0.0137510   -0.2332229   -0.9709373    0.0537379
   0.0633580    0.0821040   -0.0187540   -0.6151964   -0.7700474    0.1689981
   0.0664020    0.0807000    0.0167960   -0.4661233   -0.8803647   -0.0876757
   0.0607190    0.0842710   -0.0217890   -0.6027460   -0.7967721    0.0430294
   0.0633580    0.0821040    0.0196540   -0.5602179   -0.8134949   -0.1561469
   0.0566310    0.0864400   -0.0244480   -0.5456291   -0.8282584    0.1275806
   0.0607190    0.0842710    0.0226890   -0.5766981   -0.7943803   -0.1907335
   0.0566310    0.0864400    0.0253480   -0.5123847   -0.8562339   -0.0657685
   0.0527980    0.0888250   -0.0266610   -0.5974463   -0.7526827    0.2766344
   0.0527980    0.0888250    0.0275610   -0.5592809   -0.8246316   -0.0847791
   0.0632750    0.0948240   -0.0277530    0.6848977   -0.1656301   -0.7095645
   0.0641810    0.0976420   -0.0272190    0.7075999   -0.0378404   -0.7055994
   0.0617480    0.0924280   -0.0286050    0.5123997   -0.3945378   -0.7627492
   0.0654510    0.1003920   -0.0263670    0.6759135   -0.0859000   -0.7319577
   0.0576510    0.0912190   -0.0300400    0.1953193   -0.6451053   -0.7387080
   0.0524490    0.0915360   -0.0309490   -0.0956319   -0.7735001   -0.6265398
   0.0659430    0.1059680   -0.0271060    0.7817828    0.2506292   -0.5709647
   0.0659410    0.1089220   -0.0249690    0.5904432    0.0041568   -0.8070685
   0.0626340    0.1015120   -0.0286100    0.7667561   -0.1612452   -0.6213574
   0.0687810    0.1112640   -0.0235920    0.5252023    0.3376949   -0.7811048
   0.0697640    0.1110530   -0.0228110    0.4716854    0.3383739   -0.8142580
   0.0713340    0.1097400   -0.0216770    0.4910537    0.1409002   -0.8596589
   0.0737180    0.1120430   -0.0178000    0.5686573    0.1450826   -0.8096789
   0.0726860    0.1109500   -0.0206450    0.7218115    0.0139019   -0.6919500
   0.0714960    0.1112630   -0.0214100    0.4304614    0.0893077   -0.8981799
   0.0491670    0.0911000   -0.0291100   -0.4211910   -0.8638514   -0.2763312
   0.0489740    0.0913120   -0.0287440   -0.6148988   -0.7525330    0.2357830
   0.0644750    0.0846170    0.0154530   -0.7504715   -0.3783968   -0.5418564
   0.0618420    0.0862870    0.0177900   -0.6944807   -0.3171893   -0.6458232
   0.0625260    0.0976700    0.0158560   -0.6295324    0.0119859   -0.7768818
   0.0656560    0.1030720    0.0156030   -0.5903370    0.3539571   -0.7254079
   0.0703110    0.1083710    0.0153690   -0.4040203    0.5104287   -0.7590983
   0.0715520    0.1101690    0.0161030   -0.3021171    0.4628345   -0.8333723
   0.0736810    0.1093810    0.0141150   -0.3322680    0.5459479   -0.7691156
   0.0745860    0.1105380    0.0145990   -0.3353849    0.3094837   -0.8897959
   0.0674520    0.1090620   -0.0162490   -0.3922863    0.2154556    0.8942541
   0.0623200    0.1025950   -0.0165060   -0.4013348    0.1510504    0.9033904
   0.0701930    0.1111040   -0.0154680   -0.2630574    0.4252756    0.8659916
   0.0679410    0.1106130   -0.0161580   -0.3762373    0.2455251    0.8933996
   0.0711330    0.1103760   -0.0153720   -0.1064528    0.3236249    0.9401780
   0.0590940    0.0980510   -0.0168310   -0.5446622   -0.0901383    0.8337975
   0.0725310    0.1120910   -0.0156630   -0.5166836    0.3373516    0.7869129
   0.0583150    0.0884300   -0.0192530   -0.6977761   -0.3840979    0.6046299
   0.0731540    0.1149560   -0.0151550   -0.8125303    0.2276031    0.5366483
   0.0738580    0.1170750   -0.0151290   -0.4426263    0.8684824    0.2232044
   0.0752320    0.1169470   -0.0154940   -0.1592513    0.9813258    0.1078828
   0.0763840    0.1183770   -0.0173320   -0.2480848    0.9682972   -0.0292319
   0.0786190    0.1173740   -0.0173830    0.5268834    0.7511966   -0.3976149
   0.0747860    0.1137430    0.0142590   -0.3137047    0.0070957   -0.9494941
   0.0759900    0.1163670    0.0140410   -0.1855338    0.3709709   -0.9099219
   0.0764170    0.1171440    0.0153870    0.2260290    0.9433155   -0.2430366
   0.0767550    0.1169930    0.0160960    0.1030603    0.9342428   -0.3414220
   0.0793560    0.1170430    0.0170260    0.7362700    0.6179786   -0.2756972
   0.0770980    0.1178170    0.0163220    0.0486870    0.7937554   -0.6062853
   0.0797110    0.1156660    0.0171240    0.9976756    0.0425089    0.0532571
   0.0654510    0.1003920    0.0272670    0.6804806   -0.1565014    0.7158586
   0.0641810    0.0976420    0.0281190    0.6919961   -0.0915429    0.7160735
   0.0632750    0.0948240    0.0286530    0.7045672   -0.1165566    0.6999997
   0.0659410    0.1089220    0.0258690    0.6207890   -0.0264183    0.7835324
   0.0659430    0.1059680    0.0280060    0.6662740    0.1857613    0.7221992
   0.0626340    0.1015120    0.0295100    0.7365462   -0.1100472    0.6673750
   0.0617480    0.0924280    0.0295050    0.6052437   -0.2517541    0.7551820
   0.0697640    0.1110530    0.0237110    0.3343919    0.1424872    0.9316005
   0.0687810    0.1112640    0.0244920    0.4850297    0.2844573    0.8269403
   0.0713340    0.1097400    0.0225770    0.3944727    0.0411738    0.9179848
   0.0576510    0.0912190    0.0309400    0.3436795   -0.4770987    0.8088642
   0.0753940    0.1104130    0.0196050    0.1279953    0.1073427    0.9859487
   0.0737180    0.1120430    0.0187000    0.5563443    0.1819458    0.8107877
   0.0726860    0.1109500    0.0215450    0.7256971    0.0388566    0.6869162
   0.0714960    0.1112630    0.0223100    0.3350211    0.0168690    0.9420596
   0.0524490    0.0915360    0.0318490   -0.0165435   -0.7048565    0.7091570
   0.0772150    0.1141110    0.0198560    0.0133907    0.0413179    0.9990563
   0.0491670    0.0911000    0.0300100   -0.4378530   -0.8646148    0.2464264
   0.0489740    0.0913120    0.0296440   -0.6390118   -0.7245308   -0.2583001
   0.0795740    0.1152480    0.0186960    0.7600497    0.1551822    0.6310649
   0.0771400    0.1165800    0.0195070    0.0353532    0.3775669    0.9253072
   0.0747240    0.1154690   -0.0181940    0.5041793    0.3997349   -0.7655163
   0.0740620    0.1169840   -0.0171610    0.0466343    0.9838560   -0.1727793
   0.0550870    0.0893180   -0.0218050   -0.6631260   -0.4744716    0.5789133
   0.0583150    0.0884300    0.0201530   -0.6428157   -0.3555423   -0.6785113
   0.0518620    0.0911740   -0.0241130   -0.6657536   -0.4979246    0.5557367
   0.0550870    0.0893180    0.0227050   -0.6557950   -0.4415446   -0.6123490
   0.0518620    0.0911740    0.0250130   -0.6780782   -0.4808272   -0.5558913
   0.0486150    0.0935000   -0.0260720   -0.6557120   -0.4961014    0.5691443
   0.0486150    0.0935000    0.0269720   -0.6732430   -0.4791509   -0.5631681
   0.0609910    0.0965360   -0.0301860    0.6006147   -0.1047392   -0.7926485
   0.0617440    0.0997970   -0.0297340    0.6243365   -0.1435313   -0.7678559
   0.0586360    0.0948650   -0.0314100    0.4247382   -0.3697488   -0.8263676
   0.0538640    0.0932310   -0.0320470    0.1282312   -0.6398102   -0.7577596
   0.0483660    0.0939620   -0.0327330   -0.1107399   -0.7936152   -0.5982572
   0.0452620    0.0937370   -0.0311750   -0.3602197   -0.8814115   -0.3055416
   0.0620780    0.1076130   -0.0302220    0.7442982    0.3388524   -0.5754991
   0.0627570    0.1102210   -0.0272780    0.4579842    0.4195061   -0.7837507
   0.0624530    0.1032990   -0.0306160    0.7697769   -0.1044647   -0.6297068
   0.0644340    0.1120720   -0.0258040    0.3195376    0.2966243   -0.8999499
   0.0663320    0.1111340   -0.0251370    0.4647559    0.0879382   -0.8810612
   0.0681270    0.1110490   -0.0242040    0.7248363    0.1812577   -0.6646488
   0.0587190    0.1017520   -0.0317700    0.5834319   -0.2899979   -0.7586228
   0.0675530    0.1129460   -0.0211630    0.6991397    0.5014955   -0.5096135
   0.0695520    0.1124970   -0.0213830    0.1053659    0.4009089   -0.9100385
   0.0741010    0.1152690   -0.0205960    0.9008428   -0.0567952   -0.4304145
   0.0738880    0.1173120   -0.0198130    0.8809932    0.4224115   -0.2131185
   0.0725790    0.1154640   -0.0217800    0.4441139   -0.0055919   -0.8959529
   0.0710300    0.1159100   -0.0220440    0.3225089    0.0694941   -0.9440119
   0.0450790    0.0938260   -0.0306490   -0.5817367   -0.7893114    0.1963922
   0.0453650    0.0955870   -0.0281200   -0.6320460   -0.4589200    0.6244280
   0.0590940    0.0980510    0.0177310   -0.5632008    0.0749619   -0.8229128
   0.0623200    0.1025950    0.0174060   -0.4148353    0.2605296   -0.8718004
   0.0674520    0.1090620    0.0171490   -0.4186120    0.1729933   -0.8915365
   0.0679410    0.1106130    0.0170580   -0.3246689    0.2965943   -0.8981213
   0.0701930    0.1111040    0.0163680   -0.2540727    0.4542550   -0.8538732
   0.0711330    0.1103760    0.0162720   -0.1349496    0.3711501   -0.9187144
   0.0725310    0.1120910    0.0165630   -0.3788812    0.2719834   -0.8845756
   0.0731540    0.1149560    0.0160550   -0.7011957    0.2062919   -0.6824722
   0.0643360    0.1097430   -0.0175690   -0.2919383    0.2031826    0.9346063
   0.0563080    0.1010040   -0.0174460   -0.4210784   -0.0374400    0.9062512
   0.0664630    0.1108050   -0.0168990   -0.4614864    0.2419475    0.8535173
   0.0651460    0.1114550   -0.0178570   -0.2772343    0.3228598    0.9049324
   0.0557190    0.0971620   -0.0186900   -0.5698339   -0.3000469    0.7650236
   0.0717060    0.1133000   -0.0164270   -0.2559576    0.1429460    0.9560608
   0.0721560    0.1130780   -0.0160330   -0.4136583    0.2262561    0.8818702
   0.0683960    0.1117280   -0.0161580   -0.1937379   -0.0520829    0.9796698
   0.0670340    0.1124000   -0.0175600   -0.6890260    0.3155567    0.6524317
   0.0735670    0.1167260   -0.0162340   -0.2075495    0.8666252    0.4537444
   0.0738580    0.1170750    0.0160290   -0.4429945    0.8714734   -0.2104519
   0.0752320    0.1169470    0.0163940   -0.1698973    0.9853889    0.0119819
   0.0763840    0.1183770    0.0182320   -0.2555916    0.9595787    0.1178203
   0.0786190    0.1173740    0.0182830    0.5470134    0.7226175    0.4226112
   0.0617440    0.0997970    0.0306340    0.7147476   -0.1026311    0.6918112
   0.0609910    0.0965360    0.0310860    0.6066961   -0.0918921    0.7896047
   0.0586360    0.0948650    0.0323100    0.4772541   -0.2990930    0.8263001
   0.0627570    0.1102210    0.0281780    0.5180585    0.3672854    0.7724745
   0.0620780    0.1076130    0.0311220    0.6345120    0.3137025    0.7063889
   0.0663320    0.1111340    0.0260370    0.4637973    0.1083493    0.8792909
   0.0644340    0.1120720    0.0267040    0.3309097    0.2552009    0.9084995
   0.0681270    0.1110490    0.0251040    0.7070417    0.2860341    0.6467430
   0.0624530    0.1032990    0.0315160    0.6885428   -0.0842205    0.7202886
   0.0587190    0.1017520    0.0326700    0.7283340   -0.2075179    0.6530436
   0.0538640    0.0932310    0.0329470    0.1967435   -0.5742532    0.7946857
   0.0695520    0.1124970    0.0222830   -0.0058825    0.1919374    0.9813895
   0.0675530    0.1129460    0.0220630    0.6770402    0.3327647    0.6564177
   0.0483660    0.0939620    0.0336330   -0.0767648   -0.7673710    0.6365916
   0.0747240    0.1154690    0.0190940    0.4760725    0.4466838    0.7575147
   0.0741010    0.1152690    0.0214960    0.9081842   -0.0375838    0.4168799
   0.0738880    0.1173120    0.0207130    0.8260780    0.2802825    0.4889140
   0.0725790    0.1154640    0.0226800    0.4556467    0.0292029    0.8896816
   0.0710300    0.1159100    0.0229440    0.0181178    0.1231854    0.9922183
   0.0452620    0.0937370    0.0320750   -0.3973562   -0.8836608    0.2474906
   0.0450790    0.0938260    0.0315490   -0.6323379   -0.7308058   -0.2570441
   0.0453650    0.0955870    0.0290200   -0.6674676   -0.4620613   -0.5839403
   0.0740620    0.1169840    0.0180610    0.0329317    0.9210731    0.3879946
   0.0731820    0.1188460   -0.0192230    0.3090587    0.8751211    0.3723517
   0.0718300    0.1189640   -0.0186320    0.3933817    0.7730579    0.4976267
   0.0717370    0.1177880   -0.0171180    0.3302664    0.8476298    0.4152684
   0.0715330    0.1181190   -0.0159650    0.2189051    0.8081614    0.5467685
   0.0525630    0.0970350   -0.0210610   -0.6135472   -0.4056103    0.6775250
   0.0557190    0.0971620    0.0195900   -0.6148331   -0.0582486   -0.7865032
   0.0494770    0.0980110   -0.0233920   -0.6290305   -0.3880552    0.6735976
   0.0525630    0.0970350    0.0219610   -0.6301738   -0.2748028   -0.7261986
   0.0494770    0.0980110    0.0242920   -0.6422576   -0.3897634   -0.6599921
   0.0463920    0.0999390   -0.0250970   -0.7094352   -0.2740492    0.6493063
   0.0463920    0.0999390    0.0259970   -0.7025208   -0.3154646   -0.6379236
   0.0576680    0.0987920   -0.0325250    0.5417780   -0.2147202   -0.8126326
   0.0555660    0.0970600   -0.0336880    0.3402800   -0.4184377   -0.8420923
   0.0499470    0.0949830   -0.0339240    0.1316996   -0.5873100   -0.7985751
   0.0442660    0.0958760   -0.0348400   -0.0509151   -0.7099923   -0.7023665
   0.0414900    0.0959950   -0.0337950   -0.3320149   -0.8751670   -0.3519216
   0.0411500    0.0959790   -0.0327250   -0.5848186   -0.7850585    0.2041330
   0.0580760    0.1103920   -0.0321590    0.6530541    0.4931091   -0.5747728
   0.0583060    0.1124190   -0.0289740    0.4960911    0.6574999   -0.5670869
   0.0596290    0.1052890   -0.0325850    0.6140459    0.1117940   -0.7813128
   0.0569220    0.1075540   -0.0343480    0.5920364    0.1527745   -0.7912982
   0.0621690    0.1126520   -0.0262210    0.3558862    0.4647783   -0.8107565
   0.0604850    0.1134840   -0.0266850    0.3498981    0.6070186   -0.7135122
   0.0580880    0.1035730   -0.0338970    0.5629943   -0.1613276   -0.8105621
   0.0642620    0.1137700   -0.0248190    0.2760295    0.0522682   -0.9597269
   0.0664040    0.1124380   -0.0248700    0.5005334   -0.0189490   -0.8655098
   0.0623730    0.1136270   -0.0257520    0.1795103    0.1800661   -0.9671361
   0.0675290    0.1124200   -0.0236470    0.9141727   -0.0109574   -0.4051768
   0.0544700    0.1003730   -0.0345380    0.4208216   -0.3489990   -0.8373224
   0.0689690    0.1165950   -0.0213640    0.8151680    0.1283619   -0.5648224
   0.0687880    0.1164370   -0.0242580    0.9126638   -0.0532417   -0.4052284
   0.0685990    0.1179800   -0.0235000    0.8062010    0.5443771   -0.2317188
   0.0725470    0.1184030   -0.0207460    0.3115441    0.7132284   -0.6278897
   0.0712050    0.1192450   -0.0187850   -0.0233755    0.9704098    0.2403299
   0.0703960    0.1186300   -0.0211870    0.3054293    0.8024687   -0.5125982
   0.0688870    0.1185790   -0.0212660    0.2798153    0.9471498   -0.1568779
   0.0421220    0.0981070   -0.0298580   -0.6114187   -0.3907446    0.6881031
   0.0453630    0.1024930   -0.0264360   -0.7238593   -0.2674992    0.6359811
   0.0563080    0.1010040    0.0183460   -0.4474814    0.1710300   -0.8777865
   0.0643360    0.1097430    0.0184690   -0.4023642    0.1000365   -0.9099976
   0.0651460    0.1114550    0.0187570   -0.3422486    0.2959925   -0.8917703
   0.0664630    0.1108050    0.0177990   -0.4955453    0.2622233   -0.8280542
   0.0670340    0.1124000    0.0184600   -0.4937592    0.3202216   -0.8084924
   0.0683960    0.1117280    0.0170580   -0.1745135   -0.0194200   -0.9844633
   0.0717060    0.1133000    0.0173270   -0.2559576    0.1429460   -0.9560608
   0.0721560    0.1130780    0.0169330   -0.2334078    0.1769588   -0.9561414
   0.0735670    0.1167260    0.0171340   -0.1079265    0.9085056   -0.4036948
   0.0611130    0.1103580   -0.0186230   -0.2926543    0.2670365    0.9181748
   0.0528180    0.1002180   -0.0189100   -0.5101713   -0.1426247    0.8481647
   0.0626090    0.1113680   -0.0182740   -0.1576453    0.2831572    0.9460285
   0.0611020    0.1115750   -0.0192310   -0.3010633    0.2921526    0.9077487
   0.0658450    0.1127130   -0.0183160   -0.3664524    0.2577534    0.8940223
   0.0637560    0.1132070   -0.0189820   -0.2167904    0.0894004    0.9721160
   0.0718480    0.1174980   -0.0151270    0.0123618    0.1191557    0.9927986
   0.0695870    0.1158280   -0.0154240   -0.3387427    0.2301137    0.9123054
   0.0677150    0.1169180   -0.0167520   -0.7099622    0.4271350    0.5599191
   0.0683030    0.1183520   -0.0192020   -0.3124378    0.3935983    0.8645594
   0.0576680    0.0987920    0.0334250    0.6358567   -0.0968158    0.7657108
   0.0555660    0.0970600    0.0345880    0.3949946   -0.2953616    0.8699085
   0.0499470    0.0949830    0.0348240    0.1418725   -0.5504451    0.8227286
   0.0583060    0.1124190    0.0298740    0.4948643    0.6087812    0.6200764
   0.0580760    0.1103920    0.0330590    0.6353036    0.4445552    0.6314745
   0.0621690    0.1126520    0.0271210    0.3203386    0.4507727    0.8331790
   0.0604850    0.1134840    0.0275850    0.3339389    0.5682802    0.7520256
   0.0569220    0.1075540    0.0352480    0.6258007    0.2002926    0.7538278
   0.0596290    0.1052890    0.0334850    0.5877589    0.0432421    0.8078797
   0.0675290    0.1124200    0.0245470    0.9170044    0.1003331    0.3860520
   0.0664040    0.1124380    0.0257700    0.4498416    0.0600386    0.8910881
   0.0642620    0.1137700    0.0257190    0.2307808    0.0257989    0.9726637
   0.0623730    0.1136270    0.0266520    0.1091077    0.1048846    0.9884810
   0.0580880    0.1035730    0.0347970    0.5901538   -0.1767576    0.7877025
   0.0544700    0.1003730    0.0354380    0.5642959   -0.1754819    0.8067070
   0.0442660    0.0958760    0.0357400   -0.0897207   -0.7413221    0.6651254
   0.0689690    0.1165950    0.0222640    0.2431294   -0.0368422    0.9692939
   0.0687880    0.1164370    0.0251580    0.8807805   -0.1600448    0.4456583
   0.0685990    0.1179800    0.0244000    0.6396749    0.4964364    0.5868279
   0.0414900    0.0959950    0.0346950   -0.3632637   -0.8784739    0.3103597
   0.0718300    0.1189640    0.0195320    0.4633038    0.8042415   -0.3722166
   0.0731820    0.1188460    0.0201230    0.4205409    0.9042650    0.0738260
   0.0725470    0.1184030    0.0216460    0.2520676    0.5348018    0.8065041
   0.0712050    0.1192450    0.0196850   -0.0585817    0.9972453   -0.0454980
   0.0703960    0.1186300    0.0220870    0.0080241    0.6575333    0.7533827
   0.0688870    0.1185790    0.0221660   -0.0156913    0.8688486    0.4948292
   0.0411500    0.0959790    0.0336250   -0.6332822   -0.7397174   -0.2275344
   0.0421220    0.0981070    0.0307580   -0.6523815   -0.3972253   -0.6454536
   0.0453630    0.1024930    0.0273360   -0.7058943   -0.2615633   -0.6582537
   0.0717370    0.1177880    0.0180180    0.3290315    0.8997577   -0.2866607
   0.0715330    0.1181190    0.0168650    0.2094347    0.8681475   -0.4499522
   0.0707300    0.1184800   -0.0178740   -0.0336940    0.9622977    0.2699034
   0.0702760    0.1186840   -0.0162530   -0.1490753    0.7943958    0.5888224
   0.0495110    0.1011360   -0.0201010   -0.5104092   -0.1474258    0.8472001
   0.0528180    0.1002180    0.0198100   -0.5159210    0.0117078   -0.8565561
   0.0488950    0.1041850   -0.0209930   -0.6084232   -0.0752629    0.7900359
   0.0495110    0.1011360    0.0210010   -0.5144831   -0.1495925   -0.8443513
   0.0488950    0.1041850    0.0218930   -0.5715359   -0.0775476   -0.8169046
   0.0458940    0.1066600   -0.0221830   -0.6423408   -0.1304647    0.7552333
   0.0458940    0.1066600    0.0230830   -0.5918568   -0.0715518   -0.8028611
   0.0517090    0.0979870   -0.0352680    0.2426751   -0.4139596   -0.8773518
   0.0461150    0.0974080   -0.0354150    0.1980745   -0.3706092   -0.9074223
   0.0403490    0.0983960   -0.0368920    0.0388795   -0.5819785   -0.8122743
   0.0378700    0.0986540   -0.0364750   -0.3292164   -0.8790259   -0.3448623
   0.0372680    0.0985680   -0.0345930   -0.6069433   -0.7551026    0.2478709
   0.0388720    0.1005980   -0.0315960   -0.6236066   -0.3560487    0.6959483
   0.0541230    0.1150230   -0.0338040    0.7059944    0.5287440   -0.4711705
   0.0553390    0.1149600   -0.0296870    0.6191894    0.7563318   -0.2111079
   0.0543770    0.1104080   -0.0355670    0.5430042    0.1788315   -0.8204668
   0.0567080    0.1148220   -0.0280440    0.5004396    0.7990101   -0.3333813
   0.0578050    0.1142800   -0.0272800    0.4642921    0.6534045   -0.5979092
   0.0585190    0.1141910   -0.0271350    0.3107376    0.6851697   -0.6587751
   0.0553020    0.1061670   -0.0358190    0.4320240   -0.0459100   -0.9006928
   0.0523370    0.1091860   -0.0367900    0.3317895    0.0102486   -0.9432978
   0.0604480    0.1148410   -0.0255080    0.0322325    0.3126942   -0.9493068
   0.0596470    0.1152370   -0.0254110   -0.0625106    0.4414434   -0.8951090
   0.0512900    0.1023150   -0.0362530    0.2965281   -0.2032489   -0.9331457
   0.0659420    0.1164970   -0.0257550    0.2637364   -0.0327349   -0.9640392
   0.0674210    0.1158330   -0.0252650    0.4413518    0.0019486   -0.8973320
   0.0632660    0.1167200   -0.0263720    0.0776919    0.0685473   -0.9946181
   0.0612740    0.1176150   -0.0259020   -0.2858454    0.2187666   -0.9329703
   0.0485240    0.1007060   -0.0365230    0.2271842   -0.2894275   -0.9298489
   0.0674790    0.1189720   -0.0242310    0.4393847    0.6385753   -0.6317933
   0.0679240    0.1185220   -0.0229580    0.0802225    0.9924440    0.0928400
   0.0670260    0.1189260   -0.0237380    0.1789632    0.9819225    0.0616472
   0.0695000    0.1190320   -0.0199610   -0.3715995    0.9013603    0.2224038
   0.0691340    0.1179790   -0.0190830   -0.2145308    0.9495048    0.2289478
   0.0679250    0.1182820   -0.0200650    0.0173789    0.9986363   -0.0492296
   0.0426070    0.1054480   -0.0276880   -0.6079612   -0.3241710    0.7247733
   0.0433230    0.1095320   -0.0235070   -0.5502927   -0.1528475    0.8208627
   0.0611130    0.1103580    0.0195230   -0.3810108    0.2146232   -0.8993151
   0.0611020    0.1115750    0.0201310   -0.3977889    0.2218044   -0.8902622
   0.0626090    0.1113680    0.0191740   -0.2607375    0.1262979   -0.9571128
   0.0637560    0.1132070    0.0198820   -0.2175470   -0.0108088   -0.9759900
   0.0658450    0.1127130    0.0192160   -0.2099994    0.2175345   -0.9531941
   0.0683030    0.1183520    0.0201020   -0.0958076    0.2777660   -0.9558593
   0.0677150    0.1169180    0.0176520   -0.5897266    0.3803559   -0.7124268
   0.0695870    0.1158280    0.0163240   -0.3464919    0.2158294   -0.9128861
   0.0718480    0.1174980    0.0160270    0.0123618    0.1191557   -0.9927986
   0.0578370    0.1109600   -0.0194690   -0.1797555    0.2588529    0.9490433
   0.0596010    0.1123160   -0.0199380   -0.1847803    0.3293406    0.9259541
   0.0618130    0.1139030   -0.0192060   -0.4069931    0.0980753    0.9081508
   0.0606880    0.1139210   -0.0204300   -0.4644527    0.1487878    0.8730097
   0.0649600    0.1154700   -0.0178780   -0.0442877   -0.0112378    0.9989556
   0.0631940    0.1160230   -0.0183430   -0.3075206    0.1372926    0.9415847
   0.0688850    0.1185790   -0.0172350   -0.5173073    0.8211410    0.2410821
   0.0667840    0.1197720   -0.0187640    0.1660569    0.7849649    0.5968712
   0.0656670    0.1197850   -0.0199890    0.2861833    0.8748524   -0.3908098
   0.0517090    0.0979870    0.0361680    0.3051802   -0.2785822    0.9106355
   0.0461150    0.0974080    0.0363150    0.1337803   -0.4154230    0.8997369
   0.0403490    0.0983960    0.0377920   -0.0415697   -0.6591399    0.7508705
   0.0553390    0.1149600    0.0305870    0.6206190    0.7207237    0.3088519
   0.0541230    0.1150230    0.0347040    0.6791802    0.4637672    0.5688885
   0.0578050    0.1142800    0.0281800    0.4562498    0.6665973    0.5894779
   0.0567080    0.1148220    0.0289440    0.4815525    0.6831879    0.5489640
   0.0585190    0.1141910    0.0280350    0.3062798    0.6860399    0.6599561
   0.0543770    0.1104080    0.0364670    0.5879525    0.2221939    0.7777800
   0.0604480    0.1148410    0.0264080   -0.0190542    0.2298394    0.9730420
   0.0596470    0.1152370    0.0263110   -0.0625106    0.4414434    0.8951090
   0.0553020    0.1061670    0.0367190    0.4522476   -0.0266722    0.8914935
   0.0523370    0.1091860    0.0376900    0.3673418    0.0318923    0.9295391
   0.0674210    0.1158330    0.0261650    0.4931531    0.0517715    0.8684007
   0.0659420    0.1164970    0.0266550    0.3109948    0.0332019    0.9498315
   0.0632660    0.1167200    0.0272720    0.0721197    0.0679073    0.9950816
   0.0612740    0.1176150    0.0268020   -0.2914795    0.1771670    0.9400274
   0.0512900    0.1023150    0.0371530    0.2952921   -0.1785010    0.9385840
   0.0485240    0.1007060    0.0374230    0.1999562   -0.2933423    0.9348625
   0.0378700    0.0986540    0.0373750   -0.3307392   -0.8794772    0.3422448
   0.0674790    0.1189720    0.0251310    0.4993006    0.7489249    0.4356724
   0.0679240    0.1185220    0.0238580    0.1568778    0.9874717    0.0169970
   0.0670260    0.1189260    0.0246380    0.1944335    0.9680040   -0.1586313
   0.0372680    0.0985680    0.0354930   -0.6218630   -0.7429176   -0.2477089
   0.0707300    0.1184800    0.0187740    0.0114505    0.9776309   -0.2100158
   0.0695000    0.1190320    0.0208610   -0.3324283    0.9415167   -0.0551158
   0.0691340    0.1179790    0.0199830   -0.1594225    0.9768973   -0.1423243
   0.0679250    0.1182820    0.0209650    0.0267705    0.9865874    0.1610236
   0.0388720    0.1005980    0.0324960   -0.6264524   -0.3212931   -0.7101607
   0.0426070    0.1054480    0.0285880   -0.6281698   -0.3473437   -0.6962435
   0.0433230    0.1095320    0.0244070   -0.5687816   -0.1820650   -0.8020847
   0.0702760    0.1186840    0.0171530   -0.1371688    0.7975806   -0.5874095
   0.0545320    0.1116150   -0.0201520   -0.2547447    0.1877560    0.9486057
   0.0578370    0.1109600    0.0203690   -0.1739648    0.2652541   -0.9483546
   0.0512420    0.1123480   -0.0209180   -0.2961785    0.0964622    0.9502491
   0.0545320    0.1116150    0.0210520   -0.1589892    0.1650638   -0.9733840
   0.0512420    0.1123480    0.0218180   -0.2334455    0.0791202   -0.9691456
   0.0480670    0.1132840   -0.0219330   -0.3901874    0.0770719    0.9175041
   0.0480670    0.1132840    0.0228330   -0.3727559    0.0965802   -0.9228896
   0.0424320    0.0999520   -0.0371140    0.2483204   -0.2890487   -0.9245474
   0.0364810    0.1004630   -0.0393830    0.1032039   -0.6013484   -0.7922935
   0.0338220    0.1007830   -0.0386360   -0.2915323   -0.9196306   -0.2632270
   0.0334850    0.1006710   -0.0370360   -0.5731352   -0.7403355    0.3513110
   0.0355920    0.1030070   -0.0333980   -0.6223815   -0.3489731    0.7006134
   0.0385280    0.1088600   -0.0286910   -0.6198342   -0.2845668    0.7313189
   0.0507380    0.1196370   -0.0348390    0.7615424    0.5645823   -0.3182766
   0.0502910    0.1193310   -0.0314530    0.6023449    0.7760530    0.1868751
   0.0520630    0.1137380   -0.0362800    0.5492931    0.2227593   -0.8053915
   0.0515370    0.1181770   -0.0293910    0.5683598    0.8156006    0.1084567
   0.0530310    0.1169010   -0.0289250    0.5841573    0.8077247    0.0796307
   0.0547390    0.1160580   -0.0282350    0.3610380    0.9275427   -0.0965196
   0.0487860    0.1113110   -0.0376480    0.3172751    0.0528833   -0.9468579
   0.0565480    0.1159660   -0.0270830    0.4081952    0.5120579   -0.7557602
   0.0576670    0.1154130   -0.0261010    0.7249220    0.2472728   -0.6429185
   0.0545540    0.1158850   -0.0271050    0.0581536    0.8091873   -0.5846658
   0.0583500    0.1161520   -0.0250220    0.4589130    0.4850717   -0.7443818
   0.0499940    0.1045440   -0.0369420    0.2758738   -0.0657736   -0.9589408
   0.0466140    0.1067720   -0.0382790    0.2958032   -0.0510245   -0.9538852
   0.0606070    0.1181540   -0.0253610   -0.4746633    0.2694629   -0.8379048
   0.0591280    0.1183380   -0.0240860    0.2706052    0.2386187   -0.9326489
   0.0467660    0.1025590   -0.0377430    0.2675240   -0.2258224   -0.9367151
   0.0657520    0.1185290   -0.0247450    0.3723781    0.4628956   -0.8044018
   0.0641350    0.1190060   -0.0256780    0.1800521    0.4799734   -0.8586074
   0.0619790    0.1190050   -0.0252410   -0.0732976    0.4320719   -0.8988556
   0.0388600    0.1022910   -0.0392680    0.2462873   -0.3772638   -0.8927567
   0.0652370    0.1194890   -0.0244300    0.2912773    0.9521078   -0.0929956
   0.0657640    0.1182740   -0.0216340    0.1646543    0.9545816   -0.2483202
   0.0638140    0.1184200   -0.0220990    0.1145346    0.9892062   -0.0913944
   0.0623590    0.1185850   -0.0226140    0.1804318    0.9754847    0.1259921
   0.0412430    0.1126800   -0.0251970   -0.5877701   -0.1150467    0.8008062
   0.0451780    0.1146900   -0.0232220   -0.4255592   -0.0482533    0.9036432
   0.0596010    0.1123160    0.0208380   -0.1514613    0.4068781   -0.9008383
   0.0606880    0.1139210    0.0213300   -0.3574922    0.2050004   -0.9111389
   0.0618130    0.1139030    0.0201060   -0.4069543    0.0608259   -0.9114211
   0.0631940    0.1160230    0.0192430   -0.2758965    0.1001844   -0.9559520
   0.0649600    0.1154700    0.0187780    0.0057023   -0.0276991   -0.9996000
   0.0667840    0.1197720    0.0196640    0.2057216    0.7922191   -0.5745150
   0.0656670    0.1197850    0.0208890    0.2584412    0.9011688    0.3479985
   0.0688850    0.1185790    0.0181350   -0.4920767    0.8492289   -0.1914964
   0.0580200    0.1138980   -0.0201620    0.0751258    0.2309367    0.9700641
   0.0559540    0.1143810   -0.0206020   -0.0603038    0.0605190    0.9963438
   0.0596200    0.1149860   -0.0207270    0.0960852   -0.0082151    0.9953392
   0.0616550    0.1172030   -0.0192520   -0.5014347    0.0812884    0.8613684
   0.0596260    0.1190830   -0.0207490    0.1463546    0.6454052    0.7496882
   0.0636230    0.1194840   -0.0195760    0.0779854    0.9632321    0.2571034
   0.0616700    0.1201120   -0.0197910   -0.2590650    0.6480093    0.7162187
   0.0424320    0.0999520    0.0380140    0.1717467   -0.3801103    0.9088560
   0.0364810    0.1004630    0.0402830    0.0240761   -0.6740165    0.7383238
   0.0338220    0.1007830    0.0395360   -0.2697453   -0.9153050    0.2990890
   0.0502910    0.1193310    0.0323530    0.6442797    0.7593820   -0.0907894
   0.0507380    0.1196370    0.0357390    0.7517198    0.4979613    0.4323793
   0.0530310    0.1169010    0.0298250    0.5845032    0.8078970   -0.0752231
   0.0515370    0.1181770    0.0302910    0.6111831    0.7816255   -0.1245663
   0.0547390    0.1160580    0.0291350    0.3762354    0.8542584    0.3587333
   0.0520630    0.1137380    0.0371800    0.5633086    0.2360160    0.7918206
   0.0583500    0.1161520    0.0259220    0.4032876    0.4936637    0.7704902
   0.0576670    0.1154130    0.0270010    0.6720264    0.2864284    0.6828904
   0.0565480    0.1159660    0.0279830    0.3364552    0.3165678    0.8868950
   0.0545540    0.1158850    0.0280050    0.0448765    0.5599338    0.8273211
   0.0487860    0.1113110    0.0385480    0.3222594    0.0355609    0.9459832
   0.0606070    0.1181540    0.0262610   -0.4874587    0.3062864    0.8176629
   0.0591280    0.1183380    0.0249860    0.2383718    0.2555956    0.9369364
   0.0499940    0.1045440    0.0378420    0.2271336   -0.1167006    0.9668461
   0.0466140    0.1067720    0.0391790    0.2851270   -0.0730363    0.9557030
   0.0657520    0.1185290    0.0256450    0.3561194    0.6300479    0.6900860
   0.0641350    0.1190060    0.0265780    0.1499897    0.4854794    0.8612856
   0.0619790    0.1190050    0.0261410   -0.1096061    0.5041324    0.8566429
   0.0467660    0.1025590    0.0386430    0.2100767   -0.2866781    0.9347104
   0.0388600    0.1022910    0.0401680    0.2407819   -0.3823652    0.8920880
   0.0334850    0.1006710    0.0379360   -0.5682270   -0.7719769   -0.2849030
   0.0652370    0.1194890    0.0253300    0.1920857    0.9757755   -0.1047150
   0.0657640    0.1182740    0.0225340    0.1489223    0.9717912    0.1828772
   0.0638140    0.1184200    0.0229990    0.1300492    0.9839205    0.1224240
   0.0623590    0.1185850    0.0235140    0.2127611    0.9726415   -0.0932803
   0.0355920    0.1030070    0.0342980   -0.6271714   -0.3267000   -0.7070524
   0.0385280    0.1088600    0.0295910   -0.6243243   -0.2958105   -0.7229906
   0.0412430    0.1126800    0.0260970   -0.5800282   -0.1031985   -0.8080330
   0.0451780    0.1146900    0.0241220   -0.3490081   -0.0356232   -0.9364424
   0.0532630    0.1149080   -0.0203090   -0.3073695   -0.0331282    0.9510134
   0.0559540    0.1143810    0.0215020   -0.0048109   -0.0457965   -0.9989392
   0.0580200    0.1138980    0.0210620    0.0466360    0.0908429   -0.9947727
   0.0507740    0.1150720   -0.0211690   -0.3443165    0.0449746    0.9377758
   0.0480030    0.1169680   -0.0221580   -0.1658880    0.1558413    0.9737529
   0.0532630    0.1149080    0.0212090   -0.2121981    0.0624255   -0.9752308
   0.0480030    0.1169680    0.0230580   -0.1692237    0.1552754   -0.9732692
   0.0507740    0.1150720    0.0220690   -0.3526576    0.1155017   -0.9285968
   0.0326430    0.1025390   -0.0416320    0.0792803   -0.6282049   -0.7739982
   0.0296910    0.1023020   -0.0408970   -0.3278938   -0.9177936   -0.2239211
   0.0295620    0.1025890   -0.0394170   -0.5464112   -0.7038877    0.4538468
   0.0322930    0.1053900   -0.0352190   -0.5658065   -0.3456071    0.7486112
   0.0363170    0.1123500   -0.0300140   -0.6563832   -0.2212973    0.7212410
   0.0373680    0.1148740   -0.0276890   -0.7075049   -0.1416616    0.6923647
   0.0483150    0.1240510   -0.0353100    0.8674466    0.4752619    0.1471820
   0.0460910    0.1238100   -0.0326310    0.5960183    0.5932027    0.5411772
   0.0501190    0.1174010   -0.0365660    0.5429336    0.2197667   -0.8105095
   0.0487040    0.1213230   -0.0366440    0.6738720    0.1919490   -0.7134788
   0.0452810    0.1231440   -0.0310190    0.4961332    0.5319018    0.6862451
   0.0476900    0.1208790   -0.0297890    0.2905933    0.6152334    0.7328325
   0.0502360    0.1190830   -0.0290020    0.4030595    0.8322411    0.3806808
   0.0450580    0.1130190   -0.0388810    0.3443831    0.0459640   -0.9377034
   0.0504820    0.1181590   -0.0259320    0.6694172    0.7065569   -0.2294732
   0.0497680    0.1187760   -0.0278500    0.7172785    0.6519087   -0.2460217
   0.0524230    0.1166630   -0.0270870    0.2601481    0.7933727   -0.5503478
   0.0432330    0.1088990   -0.0397010    0.2952376   -0.0558979   -0.9537873
   0.0572440    0.1182060   -0.0270350    0.2624549    0.2895521   -0.9204765
   0.0586350    0.1183100   -0.0260530    0.8222491    0.0962529   -0.5609294
   0.0554280    0.1190220   -0.0268150   -0.0290423    0.3888594   -0.9208393
   0.0532300    0.1195190   -0.0265700   -0.1689850    0.4560667   -0.8737547
   0.0429840    0.1043260   -0.0393020    0.2998180   -0.1038014   -0.9483325
   0.0376970    0.1064240   -0.0408820    0.3057510    0.0009537   -0.9521110
   0.0604810    0.1194280   -0.0250700   -0.1565999    0.8089944   -0.5665727
   0.0619890    0.1199690   -0.0247490    0.0270819    0.8686557   -0.4946755
   0.0595850    0.1198300   -0.0238440    0.3104598    0.7846541   -0.5365936
   0.0581540    0.1212110   -0.0245350    0.6409581    0.5867715   -0.4948453
   0.0351610    0.1043200   -0.0413900    0.2074655   -0.4081783   -0.8890155
   0.0632940    0.1201220   -0.0246540    0.2639392    0.9578443   -0.1134480
   0.0285290    0.1047430   -0.0433680   -0.1200252   -0.8325748   -0.5407523
   0.0620780    0.1201780   -0.0207260   -0.0370519    0.9818308   -0.1861062
   0.0597610    0.1192720   -0.0223200    0.2630285    0.9646851   -0.0140935
   0.0423850    0.1162730   -0.0246350   -0.5878799   -0.1457487    0.7957101
   0.0455580    0.1176480   -0.0223320   -0.2191638   -0.0664351    0.9734237
   0.0440170    0.1181340   -0.0225960   -0.4823556   -0.2121675    0.8498930
   0.0596200    0.1149860    0.0216270    0.1373360   -0.1307054   -0.9818630
   0.0596260    0.1190830    0.0216490    0.2112307    0.6208107   -0.7549674
   0.0616550    0.1172030    0.0201520   -0.4372340    0.0543177   -0.8977060
   0.0616700    0.1201120    0.0206910   -0.2590650    0.6480093   -0.7162187
   0.0636230    0.1194840    0.0204760    0.1076388    0.9562487   -0.2720335
   0.0562540    0.1161100   -0.0198920    0.0169523   -0.3140880    0.9492425
   0.0535020    0.1172050   -0.0200180   -0.3016269   -0.3631046    0.8815760
   0.0569880    0.1181630   -0.0187640    0.2520934   -0.3499192    0.9022225
   0.0582070    0.1197190   -0.0185700    0.3004333    0.4218810    0.8554275
   0.0580590    0.1205150   -0.0207540    0.2845022    0.9586360   -0.0086876
   0.0326430    0.1025390    0.0425320    0.0808186   -0.6219755    0.7788548
   0.0296910    0.1023020    0.0417970   -0.2966900   -0.9089699    0.2928289
   0.0295620    0.1025890    0.0403170   -0.5776457   -0.7297236   -0.3658265
   0.0460910    0.1238100    0.0335310    0.6640854    0.6007644   -0.4450536
   0.0483150    0.1240510    0.0362100    0.9114140    0.4102428    0.0320221
   0.0476900    0.1208790    0.0306890    0.2946298    0.5888445   -0.7526324
   0.0452810    0.1231440    0.0319190    0.4725449    0.5083382   -0.7199261
   0.0502360    0.1190830    0.0299020    0.4442478    0.8050377   -0.3931389
   0.0501190    0.1174010    0.0374660    0.5450817    0.2009031    0.8139557
   0.0487040    0.1213230    0.0375440    0.6857057    0.1746881    0.7066058
   0.0524230    0.1166630    0.0279870    0.2605370    0.7824105    0.5656450
   0.0504820    0.1181590    0.0268320    0.7247360    0.6648336    0.1809809
   0.0497680    0.1187760    0.0287500    0.8004501    0.5502411    0.2377275
   0.0450580    0.1130190    0.0397810    0.3442940    0.0468940    0.9376900
   0.0586350    0.1183100    0.0269530    0.7804769    0.1254624    0.6124664
   0.0572440    0.1182060    0.0279350    0.2493608    0.2325516    0.9400739
   0.0554280    0.1190220    0.0277150   -0.0367947    0.3276323    0.9440886
   0.0532300    0.1195190    0.0274700   -0.1469886    0.4067872    0.9016199
   0.0432330    0.1088990    0.0406010    0.3190561   -0.0388443    0.9469395
   0.0619890    0.1199690    0.0256490   -0.0226140    0.9388386    0.3436141
   0.0604810    0.1194280    0.0259700   -0.1834429    0.8442370    0.5035997
   0.0595850    0.1198300    0.0247440    0.3104598    0.7846541    0.5365936
   0.0581540    0.1212110    0.0254350    0.6360545    0.6144127    0.4668315
   0.0429840    0.1043260    0.0402020    0.2723151   -0.1719423    0.9467208
   0.0376970    0.1064240    0.0417820    0.2910418   -0.0447912    0.9556613
   0.0632940    0.1201220    0.0255540    0.2440168    0.9617735    0.1242880
   0.0351610    0.1043200    0.0422900    0.2489984   -0.3373846    0.9078389
   0.0285290    0.1047430    0.0442680    0.0637121   -0.6046673    0.7939258
   0.0322930    0.1053900    0.0361190   -0.6157198   -0.3388434   -0.7113889
   0.0620780    0.1201780    0.0216260   -0.0235472    0.9700200    0.2418817
   0.0597610    0.1192720    0.0232200    0.3453592    0.9311939   -0.1166402
   0.0363170    0.1123500    0.0309140   -0.6561790   -0.2416866   -0.7148543
   0.0373680    0.1148740    0.0285890   -0.6451274    0.0092090   -0.7640196
   0.0423850    0.1162730    0.0255350   -0.4968150   -0.0526476   -0.8662581
   0.0440170    0.1181340    0.0234960   -0.4244340   -0.1936376   -0.8845113
   0.0455580    0.1176480    0.0232320   -0.1434695   -0.0829041   -0.9861762
   0.0512810    0.1169630   -0.0213710   -0.4842422   -0.0957888    0.8696747
   0.0535020    0.1172050    0.0209180   -0.3017834   -0.2966675   -0.9060437
   0.0562540    0.1161100    0.0207920   -0.0093368   -0.4252939   -0.9050071
   0.0461270    0.1184320   -0.0223570   -0.0208360   -0.1220084    0.9923103
   0.0495360    0.1186260   -0.0231330   -0.2519447   -0.1106782    0.9613918
   0.0512810    0.1169630    0.0222710   -0.4902084   -0.0430857   -0.8705397
   0.0461270    0.1184320    0.0232570   -0.0239519   -0.0868031   -0.9959375
   0.0495360    0.1186260    0.0240330   -0.2519447   -0.1106782   -0.9613918
   0.0254150    0.1045950   -0.0423390   -0.5038599   -0.8637852   -0.0005539
   0.0254430    0.1050640   -0.0407920   -0.5990765   -0.6048437    0.5246633
   0.0291840    0.1084010   -0.0364070   -0.4772831   -0.2998647    0.8260037
   0.0337200    0.1135630   -0.0327440   -0.5734850   -0.1728982    0.8007628
   0.0348330    0.1166000   -0.0302940   -0.7295337   -0.1116302    0.6747735
   0.0380290    0.1175980   -0.0264090   -0.6240149    0.0084247    0.7813671
   0.0460810    0.1294470   -0.0355300    0.6340073    0.3725083    0.6776964
   0.0427370    0.1297590   -0.0338420    0.5327368    0.3663206    0.7628897
   0.0478420    0.1254430   -0.0367290    0.8124347    0.1990725   -0.5480146
   0.0470350    0.1295830   -0.0370310    0.9128257    0.1947595   -0.3589123
   0.0434070    0.1256730   -0.0307250    0.4937480    0.3562349    0.7932904
   0.0425220    0.1282510   -0.0325360    0.5300125    0.4840981    0.6962297
   0.0424540    0.1162200   -0.0400340    0.3507294    0.0291205   -0.9360240
   0.0387370    0.1200490   -0.0411070    0.4115187    0.0086393   -0.9113604
   0.0441070    0.1223840   -0.0300340    0.3493586    0.8554098    0.3823907
   0.0425860    0.1233990   -0.0298390    0.3152202    0.7884792    0.5281446
   0.0473090    0.1205290   -0.0297650    0.4333578    0.8459838    0.3106644
   0.0384430    0.1116400   -0.0409320    0.2780589   -0.0480615   -0.9593609
   0.0509940    0.1202830   -0.0256410    0.4124198    0.3753210   -0.8300868
   0.0503910    0.1215230   -0.0270900    0.7865939    0.2268078   -0.5743067
   0.0475950    0.1227780   -0.0285380    0.4803624    0.4626403   -0.7451281
   0.0343090    0.1090240   -0.0420200    0.2787405   -0.0287242   -0.9599368
   0.0570740    0.1207180   -0.0255660    0.3128397    0.7322364   -0.6049472
   0.0558840    0.1207630   -0.0254440    0.2550354    0.7852081   -0.5642741
   0.0538040    0.1224250   -0.0244810   -0.0689649    0.8902306   -0.4502591
   0.0511790    0.1214180   -0.0242620    0.5610509    0.8275634   -0.0189905
   0.0310730    0.1057630   -0.0433540    0.0691330   -0.4713734   -0.8792200
   0.0274400    0.1081740   -0.0445930    0.0063709   -0.2693963   -0.9630083
   0.0577070    0.1214120   -0.0229140    0.3421430    0.9393402    0.0240441
   0.0566560    0.1213940   -0.0234770    0.1431126    0.9726430    0.1829873
   0.0241570    0.1068800   -0.0445120   -0.4554723   -0.8366793   -0.3041591
   0.0217320    0.1081030   -0.0433310   -0.7512392   -0.6576006    0.0565782
   0.0569820    0.1200300   -0.0217860   -0.0958800    0.9948300   -0.0334697
   0.0423600    0.1186890   -0.0239730   -0.6706712   -0.1228684    0.7315077
   0.0443260    0.1214630   -0.0211520   -0.5009826   -0.1457488    0.8530965
   0.0468170    0.1213080   -0.0202920    0.0684392   -0.3814621    0.9218474
   0.0569880    0.1181630    0.0196640    0.2515371   -0.3968643   -0.8827388
   0.0582070    0.1197190    0.0194700    0.3004333    0.4218810   -0.8554275
   0.0580590    0.1205150    0.0216540    0.4100523    0.8960079   -0.1703728
   0.0539360    0.1184720   -0.0188650   -0.1939054   -0.1618504    0.9675770
   0.0553230    0.1200460   -0.0193820    0.1185099    0.8066419    0.5790374
   0.0551180    0.1198890   -0.0204860    0.3872448    0.9208308   -0.0459580
   0.0254150    0.1045950    0.0432390   -0.4285323   -0.8577002    0.2840958
   0.0254430    0.1050640    0.0416920   -0.6394238   -0.6086513   -0.4697668
   0.0291840    0.1084010    0.0373070   -0.5478636   -0.3158208   -0.7746629
   0.0427370    0.1297590    0.0347420    0.6041413    0.3606748   -0.7105821
   0.0460810    0.1294470    0.0364300    0.8577142    0.2971679   -0.4195445
   0.0425220    0.1282510    0.0334360    0.5114015    0.4831719   -0.7106430
   0.0434070    0.1256730    0.0316250    0.4633628    0.3572206   -0.8109799
   0.0470350    0.1295830    0.0379310    0.8488670    0.1029368    0.5184871
   0.0478420    0.1254430    0.0376290    0.7954084    0.1328729    0.5913292
   0.0473090    0.1205290    0.0306650    0.4597524    0.8373840   -0.2956615
   0.0441070    0.1223840    0.0309340    0.3579138    0.8647807   -0.3522103
   0.0425860    0.1233990    0.0307390    0.3226618    0.7943035   -0.5147536
   0.0424540    0.1162200    0.0409340    0.3576180    0.0370708    0.9331319
   0.0387370    0.1200490    0.0420070    0.3897130   -0.0057523    0.9209184
   0.0509940    0.1202830    0.0265410    0.4576599    0.3032056    0.8358312
   0.0503910    0.1215230    0.0279900    0.8165906    0.1897108    0.5451511
   0.0475950    0.1227780    0.0294380    0.4756693    0.4508820    0.7552775
   0.0384430    0.1116400    0.0418320    0.2975192   -0.0386740    0.9539322
   0.0570740    0.1207180    0.0264660    0.2724361    0.7987851    0.5363962
   0.0558840    0.1207630    0.0263440    0.1945524    0.7383012    0.6458023
   0.0538040    0.1224250    0.0253810   -0.0692105    0.8207208    0.5671220
   0.0511790    0.1214180    0.0251620    0.6025690    0.7975264   -0.0293622
   0.0343090    0.1090240    0.0429200    0.3065139   -0.0133130    0.9517731
   0.0577070    0.1214120    0.0238140    0.4344144    0.8677691   -0.2413730
   0.0566560    0.1213940    0.0243770    0.0772882    0.9438354   -0.3212496
   0.0310730    0.1057630    0.0442540    0.2372490   -0.2273465    0.9444715
   0.0274400    0.1081740    0.0454930    0.1909513   -0.0744163    0.9787747
   0.0241570    0.1068800    0.0454120   -0.1107402   -0.5172500    0.8486395
   0.0217320    0.1081030    0.0442310   -0.7028478   -0.6527252    0.2827626
