NORM_ASCII
770 1541
  -0.1158372   -0.0914817    0.0826872   -0.9946284   -0.0294471    0.0992335
  -0.1147201   -0.0923732    0.0720654   -0.9217982   -0.2297077   -0.3122860
  -0.1150166   -0.0888743    0.0701059   -0.7435660   -0.2598972   -0.6160869
  -0.1061825   -0.0798074    0.0945834    0.9603077   -0.2759644   -0.0406546
  -0.1042394   -0.0762029    0.1022910    0.8774850   -0.4255526    0.2211901
  -0.1001552   -0.0604317    0.1104418    0.2208084   -0.5559917    0.8013220
  -0.1040359   -0.0582670    0.1107105   -0.5298447   -0.2667616    0.8050483
  -0.1048058   -0.0563878    0.1099203   -0.9036210    0.1481803    0.4018852
  -0.1115766   -0.0773143    0.0931049   -0.9722853    0.1779206    0.1516760
  -0.1095645   -0.0687101    0.0980015   -0.9651459    0.2309145    0.1231741
  -0.1044366   -0.0542132    0.1080191   -0.9041239    0.4254336    0.0395750
  -0.1120079   -0.0830014    0.0667627    0.4945132   -0.3610832   -0.7906172
  -0.1120538   -0.0861881    0.0682309    0.8974466   -0.2421487   -0.3687188
  -0.1079999   -0.0866273    0.0776097    0.9509246   -0.2075194   -0.2295171
  -0.1157228   -0.0847956    0.0775094   -0.9931521    0.1146256    0.0225784
  -0.1138327   -0.0760642    0.0733985   -0.9508863    0.3080801   -0.0300312
  -0.1139324   -0.0805645    0.0657812   -0.7768243   -0.1231696   -0.6175543
  -0.1045820   -0.0755794    0.0931778    0.9558982   -0.2832485   -0.0776463
  -0.1029330   -0.0721251    0.1001543    0.9132487   -0.4073698   -0.0051575
  -0.0980618   -0.0607713    0.1096247    0.5268720   -0.6124140    0.5893683
  -0.0956913   -0.0490634    0.1184210    0.1459443   -0.6722288    0.7258159
  -0.0970645   -0.0479652    0.1201080   -0.3099675   -0.3732073    0.8744349
  -0.0977800   -0.0458805    0.1195964   -0.7965855    0.2851440    0.5330519
  -0.0970185   -0.0443282    0.1174276   -0.7831089    0.6088445    0.1266843
  -0.1093625   -0.0679448    0.0889101   -0.9002957    0.4329250   -0.0452061
  -0.1078675   -0.0631698    0.0947127   -0.8899835    0.4465501   -0.0923167
  -0.1011929   -0.0504786    0.1059946   -0.8042197    0.5825704   -0.1176540
  -0.0952262   -0.0421498    0.1148041   -0.6923988    0.7179815   -0.0713196
  -0.1079581   -0.0797000    0.0756290    0.9514024   -0.1505862   -0.2686210
  -0.1117674   -0.0757239    0.0635961    0.4499044   -0.3019357   -0.8404885
  -0.1062944   -0.0643979    0.0863810   -0.8981779    0.4391123    0.0213736
  -0.1118493   -0.0706864    0.0699545   -0.9515148    0.2889315    0.1055375
  -0.1129419   -0.0721914    0.0632223   -0.9223483    0.0414352   -0.3841312
  -0.1030575   -0.0694693    0.0906191    0.9619970   -0.2009239   -0.1849090
  -0.1018021   -0.0689825    0.0994086    0.9306178   -0.3363014   -0.1444014
  -0.0964570   -0.0599710    0.1080608    0.8197719   -0.5496006    0.1609759
  -0.0931250   -0.0478249    0.1192639    0.3811496   -0.7345697    0.5613665
  -0.0862174   -0.0415010    0.1253501    0.1795255   -0.7397465    0.6484950
  -0.0877665   -0.0404540    0.1259910   -0.2452980   -0.3406307    0.9076341
  -0.0885353   -0.0385750    0.1252011   -0.6383938    0.2842152    0.7153147
  -0.0876758   -0.0361654    0.1239292   -0.6886330    0.6740140    0.2673755
  -0.0856846   -0.0337732    0.1206623   -0.5824708    0.8113667   -0.0491101
  -0.1043585   -0.0591504    0.0928691   -0.8587057    0.5013263   -0.1062846
  -0.0984890   -0.0477688    0.1032541   -0.8142786    0.5789741   -0.0417055
  -0.0921471   -0.0397980    0.1106981   -0.7148465    0.6972987    0.0526215
  -0.0829366   -0.0331168    0.1176488   -0.6075623    0.7917453    0.0633042
  -0.1075766   -0.0712247    0.0731016    0.9496201   -0.1448965   -0.2778970
  -0.1096588   -0.0550916    0.0580446    0.3172255   -0.2223688   -0.9219111
  -0.1048356   -0.0591123    0.0848907   -0.9459180    0.2512306    0.2052374
  -0.1024775   -0.0547739    0.0921887   -0.9352925    0.3123376    0.1663527
  -0.1100312   -0.0641244    0.0690130   -0.9512211    0.2078180    0.2280133
  -0.1121573   -0.0661136    0.0621747   -0.9898137    0.1403461    0.0239136
  -0.1090598   -0.0474215    0.0578645   -0.9347676    0.1520715   -0.3210666
  -0.1028092   -0.0618882    0.0883366    0.9550806   -0.1581863   -0.2505956
  -0.1005706   -0.0640895    0.0971338    0.9353538   -0.2508005   -0.2494241
  -0.0960673   -0.0585084    0.1069084    0.8782658   -0.4609775   -0.1270783
  -0.0898496   -0.0488554    0.1160481    0.5680092   -0.7198789    0.3989235
  -0.0853680   -0.0413579    0.1235175    0.4970009   -0.8207788    0.2816243
  -0.0765321   -0.0353799    0.1297197    0.2009605   -0.7950095    0.5723414
  -0.0783088   -0.0342769    0.1299145   -0.2105279   -0.3157883    0.9251788
  -0.0795154   -0.0316600    0.1300095   -0.4842744    0.1861636    0.8548810
  -0.0791779   -0.0301015    0.1294663   -0.6319307    0.6797064    0.3723745
  -0.0775470   -0.0285475    0.1259962   -0.5269548    0.8498861   -0.0035148
  -0.0744885   -0.0277052    0.1225587   -0.5892613    0.8049564    0.0694005
  -0.0971871   -0.0453458    0.1023295   -0.8854548    0.4080316    0.2224411
  -0.0908962   -0.0380181    0.1091491   -0.7918188    0.4969647    0.3550340
  -0.0818026   -0.0311702    0.1153314   -0.6868197    0.5417942    0.4844974
  -0.0736792   -0.0258105    0.1201190   -0.6662256    0.5517006    0.5017668
  -0.1054834   -0.0516535    0.0685637    0.9387347   -0.2256228   -0.2605216
  -0.1032371   -0.0292674    0.0552184    0.2591366   -0.0919706   -0.9614518
  -0.1021992   -0.0415006    0.0812355   -0.9356385    0.2280204    0.2694201
  -0.0988523   -0.0367000    0.0897996   -0.9142293    0.2696179    0.3024747
  -0.0930616   -0.0304938    0.0984284   -0.8640642    0.3311726    0.3791012
  -0.1074578   -0.0450738    0.0669932   -0.9513394    0.2222306    0.2134638
  -0.1021325   -0.0251955    0.0634001   -0.9254526    0.2962926    0.2361104
  -0.1042427   -0.0277798    0.0567679   -0.9241625    0.2719052   -0.2683119
  -0.1006349   -0.0461084    0.0841145    0.9430148   -0.2442581   -0.2259670
  -0.0997054   -0.0551018    0.0941469    0.9342387   -0.1825969   -0.3063601
  -0.0955469   -0.0560137    0.1049710    0.8813951   -0.3028043   -0.3625633
  -0.0878505   -0.0482436    0.1145401    0.7437056   -0.6680420    0.0249370
  -0.0817997   -0.0407332    0.1203636    0.5289364   -0.7791980    0.3362688
  -0.0759767   -0.0347988    0.1269522    0.5179586   -0.8518449    0.0779683
  -0.0740740   -0.0342604    0.1308815    0.1559778   -0.8364002    0.5254576
  -0.0751477   -0.0322542    0.1314024   -0.2850410   -0.2889379    0.9139292
  -0.0766303   -0.0299321    0.1313105   -0.5185344    0.1738237    0.8372021
  -0.0768593   -0.0282335    0.1296538   -0.6055848    0.7222522    0.3340939
  -0.0747090   -0.0271631    0.1275683   -0.5268927    0.8475691   -0.0633300
  -0.0717740   -0.0257176    0.1237001   -0.5877825    0.7967665    0.1402675
  -0.0705323   -0.0233522    0.1219488   -0.6616183    0.5402809    0.5199595
  -0.0882884   -0.0268863    0.1046974   -0.7928344    0.3812294    0.4754764
  -0.0814722   -0.0232096    0.1116359   -0.6883400    0.3772607    0.6195663
  -0.0729551   -0.0202587    0.1178956   -0.6114485    0.3540579    0.7076537
  -0.0690876   -0.0179307    0.1199134   -0.6360525    0.3746897    0.6745701
  -0.0986541   -0.0270403    0.0656552    0.9101486   -0.2719375   -0.3125374
  -0.0959987   -0.0022329    0.0589376    0.4678866   -0.0298533   -0.8832842
  -0.0976165   -0.0219772    0.0782654   -0.8961076    0.3546928    0.2668036
  -0.0941393   -0.0189839    0.0856728   -0.8689436    0.3868536    0.3086766
  -0.0891812   -0.0171048    0.0947472   -0.8169715    0.4203243    0.3948229
  -0.0849423   -0.0161658    0.1015181   -0.7769378    0.4314001    0.4585429
  -0.0896600   -0.0014132    0.0714319   -0.8459328    0.2991350    0.4414929
  -0.0994803   -0.0161688    0.0630568   -0.9354350    0.2748249    0.2223346
  -0.0968282   -0.0071431    0.0627135   -0.8791360    0.2478838    0.4070302
  -0.0998201   -0.0131884    0.0583598   -0.9372498    0.2713416    0.2189442
  -0.0974310   -0.0048142    0.0582090   -0.9412663    0.2883033   -0.1757812
  -0.0940545   -0.0232629    0.0805502    0.8946643   -0.3537377   -0.2728470
  -0.0979169   -0.0428885    0.0919479    0.9259460   -0.2665598   -0.2675254
  -0.0957841   -0.0471512    0.1013875    0.8771210   -0.1937296   -0.4394629
  -0.0876984   -0.0465900    0.1124037    0.7709136   -0.3646772   -0.5222095
  -0.0795959   -0.0398963    0.1182096    0.6678225   -0.7409575   -0.0706756
  -0.0738230   -0.0341762    0.1245176    0.4427298   -0.8608172    0.2509662
  -0.0733001   -0.0331510    0.1283609    0.5064243   -0.8622343    0.0092963
  -0.0717739   -0.0330048    0.1324317    0.1187428   -0.8691698    0.4800458
  -0.0726894   -0.0311337    0.1325642   -0.4201301   -0.2868490    0.8609346
  -0.0739628   -0.0282881    0.1327230   -0.5392220    0.1257793    0.8327180
  -0.0727555   -0.0259588    0.1321148   -0.5939971    0.6998770    0.3966607
  -0.0718835   -0.0252034    0.1289279   -0.5239019    0.8509874   -0.0367035
  -0.0685546   -0.0234905    0.1254748   -0.6117691    0.7834047    0.1096154
  -0.0671931   -0.0217385    0.1241449   -0.6751617    0.5647397    0.4745795
  -0.0662255   -0.0166878    0.1220251   -0.6472264    0.3783875    0.6617559
  -0.0783691   -0.0139311    0.1086752   -0.7182001    0.4160947    0.5577219
  -0.0707690   -0.0131572    0.1162659   -0.6634284    0.3479140    0.6624339
  -0.0677988   -0.0123834    0.1182627   -0.6491261    0.2796167    0.7074248
  -0.0640981   -0.0114367    0.1213311   -0.6743718    0.2320095    0.7009952
  -0.0893781   -0.0009924    0.0679440    0.8378966   -0.2698164   -0.4744770
  -0.0967046    0.0001627    0.0593199   -0.9023156    0.2767225   -0.3305317
  -0.0916425    0.0101954    0.0605790    0.1464567    0.0987237   -0.9842785
  -0.0848349    0.0025365    0.0774384   -0.8541207    0.3190552    0.4107087
  -0.0799188    0.0053995    0.0846681   -0.8505562    0.2634257    0.4551495
  -0.0746941    0.0068016    0.0926969   -0.8684733    0.2015365    0.4529207
  -0.0698386    0.0064809    0.1029624   -0.8793253    0.1809389    0.4405089
  -0.0877073    0.0069382    0.0709405   -0.7715455   -0.0458400    0.6345204
  -0.0837535    0.0098228    0.0761028   -0.8371931   -0.1636367    0.5218533
  -0.0933425    0.0025629    0.0647325   -0.8391980    0.0662856    0.5397712
  -0.0832920   -0.0001549    0.0780112    0.8455530   -0.3458304   -0.4067448
  -0.0910303   -0.0216606    0.0877316    0.8596250   -0.4062695   -0.3098224
  -0.0943000   -0.0385507    0.0994559    0.8647089   -0.3290294   -0.3794972
  -0.0877212   -0.0368985    0.1099460    0.7220292   -0.2395026   -0.6490858
  -0.0786259   -0.0373761    0.1166163    0.6287012   -0.3606409   -0.6889652
  -0.0707875   -0.0338189    0.1218908    0.5754484   -0.8002847   -0.1685333
  -0.0710950   -0.0327742    0.1258687    0.3722787   -0.8932044    0.2521796
  -0.0706336   -0.0315068    0.1297732    0.5076976   -0.8613298   -0.0188162
  -0.0705507   -0.0302028    0.1341539   -0.3881034   -0.3466035    0.8539566
  -0.0686544   -0.0317817    0.1338400    0.1790775   -0.9146738    0.3623576
  -0.0708114   -0.0277806    0.1348740   -0.5309608    0.0724182    0.8442963
  -0.0705562   -0.0252700    0.1336431   -0.5786405    0.6414798    0.5036653
  -0.0688270   -0.0232908    0.1307470   -0.5496379    0.8336546    0.0540209
  -0.0651211   -0.0213222    0.1276931   -0.6452819    0.7536214    0.1251640
  -0.0642533   -0.0193595    0.1260818   -0.7118328    0.5600101    0.4238900
  -0.0626588   -0.0151312    0.1246673   -0.6729701    0.4052363    0.6187850
  -0.0618310   -0.0111162    0.1233362   -0.6932734    0.1871363    0.6959540
  -0.0662828    0.0026602    0.1120255   -0.8628736    0.1949121    0.4663244
  -0.0647805   -0.0006451    0.1170785   -0.8546112    0.1650175    0.4923503
  -0.0627042   -0.0027687    0.1211517   -0.8296450    0.0286410    0.5575562
  -0.0609896   -0.0045250    0.1234664   -0.8253119   -0.0536188    0.5621257
  -0.0851777    0.0111160    0.0696151    0.7730813   -0.3536644   -0.5265613
  -0.0907554    0.0090731    0.0679321   -0.8233227   -0.1151209    0.5557759
  -0.0952039    0.0052158    0.0608970   -0.9615636    0.2700524   -0.0496694
  -0.0915285    0.0133198    0.0620465   -0.7644525    0.3955711   -0.5090539
  -0.0840316    0.0220296    0.0624703    0.0543335    0.1856942   -0.9811042
  -0.0794503    0.0111508    0.0845897   -0.8057838   -0.3603325    0.4699712
  -0.0753734    0.0125266    0.0926277   -0.7749895   -0.4535396    0.4401057
  -0.0706769    0.0123316    0.1032699   -0.8579209   -0.3668355    0.3597270
  -0.0664707    0.0086210    0.1125860   -0.9065733   -0.2375627    0.3488392
  -0.0878960    0.0113846    0.0721592   -0.6971739   -0.4307791    0.5730427
  -0.0845026    0.0123170    0.0770905   -0.5354125   -0.7459849    0.3960303
  -0.0821305    0.0142990    0.0863521   -0.3444285   -0.9021297    0.2598674
  -0.0792529    0.0113290    0.0788347    0.7619548   -0.4388486   -0.4762738
  -0.0800238    0.0003581    0.0855013    0.8266755   -0.4017031   -0.3940079
  -0.0869170   -0.0197983    0.0949647    0.8119264   -0.4390103   -0.3847668
  -0.0870228   -0.0322739    0.1081992    0.7571824   -0.3518295   -0.5503551
  -0.0787169   -0.0314942    0.1154314    0.5794189   -0.1640981   -0.7983393
  -0.0705894   -0.0315118    0.1203733    0.5839528   -0.3002829   -0.7542077
  -0.0678974   -0.0322297    0.1237419    0.5875971   -0.7923195   -0.1641930
  -0.0686321   -0.0312041    0.1273745    0.4260085   -0.8654016    0.2638122
  -0.0685634   -0.0302033    0.1308642    0.5544301   -0.8307889   -0.0489603
  -0.0676366   -0.0296338    0.1358634   -0.4742413   -0.3382371    0.8128289
  -0.0680853   -0.0263702    0.1362266   -0.5526792    0.1280501    0.8234979
  -0.0670072   -0.0307642    0.1356790    0.1130901   -0.9268802    0.3579159
  -0.0674543   -0.0234653    0.1348542   -0.5502409    0.6246110    0.5541625
  -0.0653835   -0.0211289    0.1329586   -0.5435520    0.7967861    0.2639756
  -0.0625114   -0.0189938    0.1295011   -0.6775062    0.7154806    0.1705074
  -0.0608882   -0.0163739    0.1281585   -0.7695366    0.5363618    0.3465970
  -0.0600287   -0.0139634    0.1268876   -0.7727507    0.4322447    0.4647805
  -0.0589704   -0.0104522    0.1256556   -0.7575972    0.2102825    0.6179222
  -0.0591943   -0.0048414    0.1264807   -0.7358203   -0.1546844    0.6592733
  -0.0638286    0.0063553    0.1177736   -0.9483164   -0.1138071    0.2962162
  -0.0626071    0.0033386    0.1224470   -0.9539615   -0.1185220    0.2755177
  -0.0609638    0.0003083    0.1254858   -0.8865606   -0.2554174    0.3857100
  -0.0593805   -0.0000862    0.1285987   -0.7302110   -0.3429157    0.5909321
  -0.0774655    0.0202186    0.0708171    0.6527778   -0.4870290   -0.5802446
  -0.0885389    0.0141694    0.0742584   -0.7308518   -0.5918336    0.3399833
  -0.0906090    0.0129934    0.0694839   -0.9251446   -0.1666542    0.3410775
  -0.0909233    0.0156470    0.0702714   -0.8379698    0.5450486    0.0269910
  -0.0902244    0.0153048    0.0623452   -0.7368530    0.6241233   -0.2598419
  -0.0889214    0.0172900    0.0626446   -0.7261529    0.6612128   -0.1884136
  -0.0862471    0.0205805    0.0628425   -0.6915230    0.6465503   -0.3221315
  -0.0827683    0.0259401    0.0651630   -0.7620509    0.6401314    0.0975206
  -0.0796069    0.0295960    0.0654396   -0.6940725    0.6960789   -0.1836777
  -0.0767714    0.0306715    0.0661124    0.3728127    0.0449841   -0.9268156
  -0.0789672    0.0151518    0.0945087   -0.2480553   -0.9292864    0.2736701
  -0.0743283    0.0167039    0.1045515   -0.4380504   -0.8286793    0.3484286
  -0.0702829    0.0183514    0.1146300   -0.7394013   -0.5784349    0.3445270
  -0.0661393    0.0159066    0.1210088   -0.8778861   -0.3695894    0.3044991
  -0.0862816    0.0132877    0.0793925   -0.4654272   -0.8788772    0.1046540
  -0.0882194    0.0142944    0.0908649   -0.2047656   -0.9728355    0.1079912
  -0.0873692    0.0150961    0.0990509   -0.1983004   -0.9313900    0.3052696
  -0.0722465    0.0180332    0.0803818    0.5953654   -0.6239746   -0.5061578
  -0.0751767    0.0100029    0.0859605    0.7380770   -0.4894115   -0.4644553
  -0.0767723   -0.0004981    0.0931060    0.8051426   -0.4373433   -0.4005949
  -0.0805029   -0.0168188    0.1042864    0.7767583   -0.4361648   -0.4543201
  -0.0787755   -0.0267671    0.1146413    0.6615218   -0.2679868   -0.7004084
  -0.0703853   -0.0260544    0.1201123    0.5299012   -0.0859768   -0.8436899
  -0.0665446   -0.0294551    0.1225566    0.5741190   -0.2996773   -0.7619586
  -0.0652955   -0.0302048    0.1246658    0.6081818   -0.7671755   -0.2038547
  -0.0661824   -0.0296367    0.1288767    0.4179556   -0.8886558    0.1886902
  -0.0651680   -0.0283757    0.1333497    0.4302956   -0.8880995   -0.1616325
  -0.0641212   -0.0282912    0.1382258   -0.4614947   -0.3370970    0.8206024
  -0.0647147   -0.0259237    0.1388287   -0.6052859    0.0860129    0.7913474
  -0.0638853   -0.0223451    0.1371512   -0.6420072    0.6214114    0.4490819
  -0.0627674   -0.0299986    0.1378793    0.0435241   -0.9743851    0.2206340
  -0.0615010   -0.0198238    0.1348395   -0.6147866    0.7341523    0.2881974
  -0.0585570   -0.0168687    0.1334377   -0.7270425    0.6237214    0.2870205
  -0.0576026   -0.0139047    0.1321892   -0.8016472    0.4748151    0.3631974
  -0.0569514   -0.0115742    0.1310251   -0.8195674    0.3972984    0.4128719
  -0.0557035   -0.0085973    0.1310478   -0.8342529    0.3194935    0.4493841
  -0.0543892   -0.0054121    0.1313534   -0.7925788    0.0826786    0.6041384
  -0.0548091   -0.0013506    0.1317917   -0.6402000   -0.2467140    0.7275137
  -0.0634403    0.0110071    0.1261122   -0.9602375   -0.1943047    0.2004732
  -0.0622670    0.0065792    0.1289330   -0.9173976   -0.2722784    0.2902517
  -0.0597442    0.0029839    0.1308824   -0.6706558   -0.4999905    0.5479328
  -0.0546246    0.0010921    0.1328691   -0.5789804   -0.4589658    0.6738932
  -0.0697090    0.0277176    0.0720838    0.5680942   -0.4152848   -0.7104981
  -0.0900022    0.0162179    0.0752618   -0.9746603   -0.1245169    0.1858303
  -0.0880601    0.0142593    0.0816936   -0.6618727   -0.7494692    0.0148500
  -0.0891714    0.0164969    0.0760155   -0.5451078    0.8370603    0.0467718
  -0.0888794    0.0172298    0.0702817   -0.6162975    0.7865385    0.0391731
  -0.0872006    0.0184126    0.0704282   -0.5592567    0.8163288    0.1443579
  -0.0825435    0.0212539    0.0701315   -0.5860488    0.7176974    0.3761080
  -0.0790949    0.0241817    0.0704488   -0.6269369    0.5637120    0.5377536
  -0.0764114    0.0273385    0.0711844   -0.6738000    0.4461302    0.5890342
  -0.0768582    0.0332690    0.0673470   -0.5652487    0.7888239   -0.2413521
  -0.0667451    0.0396886    0.0709668    0.4023525    0.0446557   -0.9143950
  -0.0816775    0.0183425    0.1076448   -0.2958188   -0.7942975    0.5306437
  -0.0744085    0.0226657    0.1167039   -0.6052041   -0.5986619    0.5247208
  -0.0680273    0.0204991    0.1231211   -0.7812358   -0.4702962    0.4104780
  -0.0638061    0.0167809    0.1293002   -0.9204013   -0.2369491    0.3109929
  -0.0898765    0.0144845    0.0905917   -0.8881871   -0.4560709    0.0558842
  -0.0878705    0.0156160    0.0996516   -0.8318705   -0.3914259    0.3934174
  -0.0828571    0.0197922    0.1081383   -0.7511446   -0.1499637    0.6428785
  -0.0644181    0.0236452    0.0796748    0.4620638   -0.5725539   -0.6772585
  -0.0696712    0.0164480    0.0859687    0.4694103   -0.6965940   -0.5425963
  -0.0721844    0.0078274    0.0932493    0.6931123   -0.5447296   -0.4720858
  -0.0737702   -0.0024911    0.1018323    0.7619587   -0.4652636   -0.4504983
  -0.0747745   -0.0154964    0.1120485    0.7090362   -0.4100224   -0.5737154
  -0.0707685   -0.0213771    0.1192011    0.5945563   -0.2460318   -0.7654875
  -0.0668247   -0.0243589    0.1222051    0.4819822   -0.0804077   -0.8724837
  -0.0640021   -0.0271965    0.1235402    0.5102857   -0.2583582   -0.8202802
  -0.0618088   -0.0280031    0.1257315    0.5782673   -0.7605455   -0.2952584
  -0.0629034   -0.0277809    0.1311333    0.3666466   -0.9285911    0.0573490
  -0.0592969   -0.0267697    0.1359664    0.3906711   -0.8786459   -0.2745130
  -0.0592758   -0.0265571    0.1425098   -0.4429369   -0.3368096    0.8308828
  -0.0598537   -0.0231286    0.1420982   -0.6939200    0.1123382    0.7112350
  -0.0593122   -0.0186864    0.1398394   -0.7552859    0.5434547    0.3663335
  -0.0569872   -0.0160606    0.1381299   -0.7325816    0.6628618    0.1547202
  -0.0574874   -0.0285547    0.1416266    0.2389620   -0.9284061    0.2845336
  -0.0556887   -0.0134916    0.1366661   -0.7782495    0.5666951    0.2705261
  -0.0546655   -0.0107658    0.1353521   -0.7986581    0.4844592    0.3569936
  -0.0537786   -0.0090777    0.1348361   -0.7839304    0.4720594    0.4032531
  -0.0530054   -0.0069091    0.1344283   -0.7751886    0.3165834    0.5466787
  -0.0525089   -0.0045895    0.1341908   -0.7937502    0.2171911    0.5681449
  -0.0519538   -0.0025035    0.1338933   -0.7720607   -0.0314189    0.6347717
  -0.0522235   -0.0000851    0.1346171   -0.6942444   -0.3253796    0.6419913
  -0.0620588    0.0122138    0.1332303   -0.9236435   -0.1812581    0.3376805
  -0.0595906    0.0090223    0.1366786   -0.6629949   -0.4447902    0.6021623
  -0.0561284    0.0062531    0.1362657   -0.4727003   -0.5524728    0.6865334
  -0.0528113    0.0030324    0.1364515   -0.6097454   -0.4526713    0.6506145
  -0.0614996    0.0358505    0.0754813    0.5756616   -0.2834439   -0.7669897
  -0.0895456    0.0149339    0.0828247   -0.9671791    0.2320397    0.1035483
  -0.0886460    0.0180440    0.0904172   -0.8448982    0.5293902   -0.0767663
  -0.0874989    0.0173679    0.0752752   -0.4179096    0.9070509    0.0510899
  -0.0883935    0.0173675    0.0828270   -0.5177761    0.8548231   -0.0344296
  -0.0828785    0.0192937    0.0754407   -0.3755967    0.9111424    0.1695483
  -0.0780919    0.0215254    0.0755596   -0.4541606    0.8144861    0.3610409
  -0.0753279    0.0234150    0.0761045   -0.5876825    0.6741628    0.4473631
  -0.0727829    0.0252272    0.0767388   -0.5163239    0.5702938    0.6388855
  -0.0721270    0.0308447    0.0731513   -0.5931178    0.4096993    0.6930784
  -0.0723064    0.0370733    0.0694839   -0.6449806    0.5631512    0.5165857
  -0.0658356    0.0414178    0.0724228   -0.5897918    0.8075499    0.0029518
  -0.0627156    0.0418904    0.0726077    0.2016650    0.7232151   -0.6605234
  -0.0747970    0.0255599    0.1175481   -0.8133175    0.1575888    0.5600717
  -0.0697195    0.0262028    0.1252755   -0.8425358   -0.1195528    0.5252053
  -0.0642898    0.0227196    0.1317184   -0.8745738   -0.2582785    0.4103814
  -0.0611632    0.0160345    0.1369478   -0.8989639   -0.1688271    0.4041799
  -0.0866714    0.0204802    0.0985297   -0.7985044    0.5894873    0.1220471
  -0.0826107    0.0228882    0.1067074   -0.6874146    0.6966837    0.2051656
  -0.0727742    0.0275530    0.1159233   -0.4419569    0.8955000    0.0524768
  -0.0565914    0.0303165    0.0810804    0.6095112   -0.3224153   -0.7242544
  -0.0612127    0.0194721    0.0846157    0.3796296   -0.6668642   -0.6412281
  -0.0674913    0.0131110    0.0918141    0.4083527   -0.7493843   -0.5212209
  -0.0695145    0.0051635    0.1000708    0.6477259   -0.5820675   -0.4915777
  -0.0701426   -0.0038419    0.1086143    0.6808310   -0.4812284   -0.5521669
  -0.0685611   -0.0133534    0.1171081    0.6409808   -0.3913486   -0.6602952
  -0.0666337   -0.0187658    0.1213991    0.5563118   -0.2299557   -0.7985221
  -0.0639348   -0.0226323    0.1235147    0.4590182   -0.0588186   -0.8864777
  -0.0613836   -0.0257532    0.1246611    0.5428720   -0.2354721   -0.8061284
  -0.0590201   -0.0265198    0.1279002    0.5768920   -0.7667767   -0.2815121
  -0.0575868   -0.0258596    0.1340725    0.4136602   -0.9022096   -0.1220785
  -0.0560369   -0.0268060    0.1398370    0.4382432   -0.8454900   -0.3051057
  -0.0548582   -0.0241062    0.1445435   -0.2492670   -0.5069644    0.8251382
  -0.0565839   -0.0203877    0.1450428   -0.7153599    0.0055435    0.6987342
  -0.0562941   -0.0165015    0.1436897   -0.8281140    0.4281169    0.3618607
  -0.0546369   -0.0134023    0.1415311   -0.7856137    0.6130119    0.0838311
  -0.0525570   -0.0112057    0.1401928   -0.7937841    0.6027819    0.0809985
  -0.0524761   -0.0260710    0.1430832    0.1520320   -0.9316923    0.3299028
  -0.0545865   -0.0250563    0.1380485    0.3038456   -0.9254685   -0.2262429
  -0.0514606   -0.0094377    0.1395693   -0.8209583    0.5245041    0.2256612
  -0.0505277   -0.0073959    0.1387851   -0.8028602    0.5444203    0.2429443
  -0.0495718   -0.0059460    0.1382026   -0.8408429    0.4066776    0.3572066
  -0.0492345   -0.0043885    0.1376594   -0.8599800    0.1347479    0.4922168
  -0.0493277   -0.0025409    0.1376614   -0.8660290    0.0833414    0.4929990
  -0.0490203   -0.0010197    0.1382686   -0.8466523   -0.1002643    0.5226154
  -0.0491646    0.0004845    0.1385333   -0.7737913   -0.1699517    0.6102158
  -0.0591420    0.0125095    0.1391613   -0.6474522   -0.3925569    0.6532264
  -0.0554444    0.0092353    0.1388559   -0.2901850   -0.4201703    0.8597962
  -0.0522428    0.0060427    0.1388131   -0.3164616   -0.1703809    0.9331787
  -0.0491952    0.0024031    0.1393502   -0.5810230   -0.0113951    0.8138074
  -0.0541624    0.0415838    0.0801349    0.6944031    0.5601085   -0.4517552
  -0.0862536    0.0192218    0.0902125   -0.3622091    0.8929727   -0.2672159
  -0.0839890    0.0225685    0.0971407   -0.3555525    0.9151722   -0.1898480
  -0.0871403    0.0176330    0.0819442   -0.1693800    0.9851703   -0.0273853
  -0.0832394    0.0192790    0.0898150    0.1227069    0.9566333   -0.2641889
  -0.0833366    0.0183758    0.0806641   -0.1149902    0.9780856    0.1735676
  -0.0789712    0.0191247    0.0799599   -0.2887745    0.8657603    0.4087400
  -0.0760741    0.0204036    0.0809298   -0.4036064    0.7156739    0.5700112
  -0.0641166    0.0296613    0.0794233   -0.5432816    0.3026600    0.7830977
  -0.0615941    0.0247042    0.0825528   -0.4641963    0.4733014    0.7486705
  -0.0650581    0.0355358    0.0763892   -0.6047360    0.3292272    0.7251922
  -0.0568911    0.0416877    0.0812558   -0.2891157    0.6443217    0.7079983
  -0.0634179    0.0425056    0.0747416   -0.1828391    0.9794825    0.0847578
  -0.0689472    0.0283715    0.1248675   -0.5950067    0.7458229    0.2995250
  -0.0645899    0.0278119    0.1345067   -0.8693777    0.3387535    0.3597616
  -0.0602809    0.0199901    0.1401202   -0.8973513   -0.2102345    0.3880234
  -0.0581690    0.0147542    0.1417908   -0.7494690   -0.3980587    0.5290043
  -0.0798207    0.0246438    0.1046628   -0.3252032    0.9446941   -0.0423790
  -0.0717852    0.0271713    0.1152327    0.0575752    0.9632127   -0.2625001
  -0.0677101    0.0290820    0.1243283    0.1553642    0.9801905   -0.1228353
  -0.0509423    0.0358905    0.0857341    0.9047023    0.4259309    0.0098273
  -0.0530694    0.0258443    0.0863889    0.6378519   -0.3874006   -0.6656319
  -0.0596077    0.0163597    0.0901705    0.3706782   -0.7454316   -0.5540121
  -0.0655725    0.0096524    0.0989157    0.4040700   -0.7573951   -0.5129133
  -0.0668958    0.0022856    0.1066114    0.6178635   -0.5740891   -0.5372769
  -0.0651488   -0.0049467    0.1147416    0.6504934   -0.4502581   -0.6116583
  -0.0648545   -0.0129815    0.1203788    0.6000772   -0.3640147   -0.7123206
  -0.0632870   -0.0175998    0.1232545    0.5174274   -0.2036434   -0.8311427
  -0.0609344   -0.0209335    0.1250444    0.4483924   -0.0454809   -0.8926790
  -0.0570229   -0.0230612    0.1267654    0.5709577   -0.3257400   -0.7535919
  -0.0546390   -0.0241017    0.1310991    0.4721924   -0.8404892   -0.2657297
  -0.0507411   -0.0224182    0.1472140   -0.3328881   -0.6773874    0.6559968
  -0.0535076   -0.0179984    0.1491800   -0.6232224   -0.2280285    0.7480621
  -0.0532975   -0.0132957    0.1476803   -0.8299154    0.2969030    0.4723231
  -0.0517524   -0.0101696    0.1453032   -0.7990639    0.5482027    0.2469224
  -0.0508651   -0.0084805    0.1447862   -0.8511495    0.5147963    0.1026123
  -0.0497027   -0.0068049    0.1435593   -0.8539811    0.5202201    0.0093444
  -0.0501556   -0.0252624    0.1411572    0.1040718   -0.9937857   -0.0394842
  -0.0480833   -0.0240957    0.1459291   -0.1192003   -0.9443459    0.3065976
  -0.0527592   -0.0246116    0.1360358    0.1551560   -0.9548309   -0.2534257
  -0.0489285   -0.0055343    0.1424654   -0.8423387    0.5379756    0.0323679
  -0.0479820   -0.0040781    0.1418908   -0.9079114    0.4090748    0.0914046
  -0.0478506   -0.0025954    0.1414415   -0.9509885    0.2228473    0.2143826
  -0.0478151   -0.0018081    0.1415234   -0.9462097    0.1353041    0.2939048
  -0.0474419   -0.0009692    0.1417301   -0.9269866    0.2311732    0.2953891
  -0.0473035    0.0003754    0.1418314   -0.8699398    0.3012382    0.3904616
  -0.0469492    0.0013515    0.1414842   -0.6921068    0.5244813    0.4958907
  -0.0539844    0.0110950    0.1403394    0.1221122   -0.5408353    0.8322174
  -0.0505069    0.0065423    0.1385639    0.4219759    0.4977252    0.7577638
  -0.0470760    0.0036076    0.1398456    0.0769827    0.7573959    0.6484020
  -0.0446049    0.0025083    0.1424292   -0.3027789    0.8202017    0.4853804
  -0.0816406    0.0225191    0.0965110    0.3273447    0.8296468   -0.4522517
  -0.0773719    0.0251436    0.1040404    0.3717143    0.8417006   -0.3916230
  -0.0799370    0.0182875    0.0885807    0.2655030    0.9632392   -0.0409683
  -0.0775437    0.0177293    0.0952401    0.5978796    0.7639853   -0.2426240
  -0.0766429    0.0172921    0.0873514    0.1851880    0.9553403    0.2302829
  -0.0728709    0.0172466    0.0859975   -0.1732421    0.8209628    0.5440655
  -0.0604838    0.0212499    0.0863628   -0.3801669    0.6351587    0.6723441
  -0.0524095    0.0355463    0.0867148   -0.1477410    0.5082510    0.8484418
  -0.0497218    0.0299623    0.0898834   -0.0543544    0.4155444    0.9079474
  -0.0491634    0.0259841    0.0917981    0.0592992    0.5645264    0.8232822
  -0.0612817    0.0297976    0.1299590    0.4162769    0.7661898   -0.4895576
  -0.0599039    0.0214519    0.1421024   -0.8879909   -0.1509991    0.4343632
  -0.0631498    0.0286117    0.1369942   -0.6530029    0.6619831    0.3679208
  -0.0595025    0.0308140    0.1340002    0.1432656    0.9078921   -0.3939631
  -0.0573399    0.0153433    0.1434333   -0.6454129   -0.5248169    0.5549860
  -0.0707973    0.0267908    0.1145429    0.4974044    0.7522914   -0.4320260
  -0.0657211    0.0281943    0.1234958    0.6424716    0.6879940   -0.3374826
  -0.0609510    0.0234097    0.1281199    0.7532997    0.4174057   -0.5082441
  -0.0491630    0.0297190    0.0897235    0.9606090    0.2695666    0.0675584
  -0.0515147    0.0228561    0.0894518    0.5479108   -0.4455706   -0.7079976
  -0.0583778    0.0129958    0.0962709    0.2437951   -0.7734479   -0.5851003
  -0.0637738    0.0064888    0.1046972    0.3416698   -0.7681055   -0.5415493
  -0.0630914    0.0002255    0.1132120    0.5647281   -0.5746854   -0.5922996
  -0.0620201   -0.0056417    0.1184497    0.6092204   -0.4313693   -0.6654105
  -0.0615475   -0.0121646    0.1224897    0.5264782   -0.3357697   -0.7810758
  -0.0595487   -0.0166118    0.1251672    0.4471815   -0.2077691   -0.8699774
  -0.0566536   -0.0198180    0.1269886    0.4368810   -0.1345851   -0.8893941
  -0.0521224   -0.0218812    0.1301014    0.5044274   -0.6007314   -0.6202216
  -0.0447518   -0.0248776    0.1481149   -0.3208402   -0.8112418    0.4888234
  -0.0500422   -0.0165466    0.1521408   -0.5715427   -0.2562719    0.7795278
  -0.0475938   -0.0215933    0.1502563   -0.3573400   -0.5702543    0.7396743
  -0.0503964   -0.0127285    0.1525252   -0.7852911    0.2435565    0.5692084
  -0.0492893   -0.0064717    0.1510474   -0.8166197    0.4158656    0.4002350
  -0.0484628   -0.0045406    0.1505928   -0.7360715    0.5966007    0.3197911
  -0.0480528   -0.0248538    0.1384409   -0.0045738   -0.9806745   -0.1955928
  -0.0462256   -0.0248180    0.1443222   -0.2574787   -0.9607974    0.1028256
  -0.0502904   -0.0233536    0.1335211    0.1900391   -0.8343750   -0.5174008
  -0.0478209   -0.0037262    0.1500898   -0.7304851    0.6077828    0.3114348
  -0.0471076   -0.0022126    0.1490593   -0.7710010    0.5646669    0.2944636
  -0.0459896   -0.0010263    0.1486415   -0.7279292    0.6066012    0.3196156
  -0.0458383   -0.0005687    0.1480629   -0.6762277    0.6405544    0.3638766
  -0.0451433    0.0000131    0.1474934   -0.6394618    0.7082098    0.2992115
  -0.0445128    0.0008331    0.1469977   -0.5139127    0.8139534    0.2708756
  -0.0419009    0.0019646    0.1472327   -0.5747916    0.8071572    0.1345805
  -0.0496993    0.0060369    0.1361000    0.7224483    0.5601097    0.4053956
  -0.0504860    0.0146751    0.1412840    0.7350090   -0.6192076    0.2763039
  -0.0542345    0.0132408    0.1421576    0.0546698   -0.7971230    0.6013370
  -0.0514927    0.0116337    0.1385710    0.9819809   -0.0828010    0.1698751
  -0.0457577    0.0030645    0.1391066    0.2402895    0.9486594    0.2056849
  -0.0440140    0.0026705    0.1412996   -0.0518780    0.9790121    0.1970885
  -0.0729189    0.0168446    0.1032831    0.7352177    0.5815372   -0.3482376
  -0.0675829    0.0143125    0.1121751    0.7905588    0.4812476   -0.3787050
  -0.0739188    0.0145240    0.0935621    0.4447321    0.8934831    0.0624602
  -0.0705602    0.0131989    0.1010515    0.5633337    0.8198211   -0.1027061
  -0.0703066    0.0137185    0.0919024    0.0203595    0.8949713    0.4456588
  -0.0571817    0.0176877    0.0923736   -0.3146154    0.7010744    0.6399312
  -0.0471880    0.0204730    0.0954933    0.0769634    0.7305126    0.6785484
  -0.0485695    0.0260180    0.0912212    0.9799602    0.1938916   -0.0456517
  -0.0463662    0.0201323    0.0944619    0.9602910    0.1727774   -0.2190643
  -0.0565975    0.0196622    0.1313994    0.7343520    0.2955287   -0.6110564
  -0.0541628    0.0269202    0.1367602    0.6986873    0.2203467   -0.6806492
  -0.0561004    0.0261936    0.1345235    0.7293942    0.2211934   -0.6473465
  -0.0579416    0.0249103    0.1472217   -0.9394976   -0.0501710    0.3388616
  -0.0579688    0.0284702    0.1468375   -0.6899212    0.6379494    0.3420956
  -0.0500094    0.0301468    0.1407357    0.2322954    0.8924941   -0.3866434
  -0.0486610    0.0287453    0.1412927    0.5642733    0.0179744   -0.8253923
  -0.0551734    0.0181323    0.1503518   -0.6118721   -0.6884755    0.3893765
  -0.0637993    0.0117749    0.1164563    0.7705769    0.4464263   -0.4548790
  -0.0590721    0.0097898    0.1225981    0.7453194    0.4788624   -0.4638855
  -0.0551424    0.0081501    0.1266398    0.6739042    0.4992679   -0.5445959
  -0.0486543    0.0187511    0.0934605    0.4133793   -0.5320201   -0.7389669
  -0.0557370    0.0103694    0.1005458    0.1990908   -0.8067609   -0.5563269
  -0.0605981    0.0031653    0.1114689    0.2781083   -0.7865971   -0.5512901
  -0.0602585   -0.0016781    0.1172083    0.4552905   -0.6055924   -0.6526625
  -0.0594450   -0.0061928    0.1210498    0.4852651   -0.4349866   -0.7584883
  -0.0575672   -0.0122576    0.1247126    0.3947308   -0.3326877   -0.8564499
  -0.0554729   -0.0160230    0.1268702    0.3486482   -0.2567728   -0.9013946
  -0.0509340   -0.0189712    0.1292966    0.3853589   -0.4141350   -0.8246155
  -0.0452331   -0.0205807    0.1517440    0.2082038   -0.3058435    0.9290376
  -0.0432218   -0.0233937    0.1500736   -0.0120591   -0.6374863    0.7703674
  -0.0432005   -0.0262336    0.1465842   -0.2447806   -0.9164461    0.3165579
  -0.0489980   -0.0161887    0.1527954    0.0150686   -0.1534310    0.9880445
  -0.0493571   -0.0123694    0.1531712    0.0238989    0.0072547    0.9996881
  -0.0482027   -0.0074074    0.1526554    0.0860531    0.1893118    0.9781390
  -0.0471375   -0.0044712    0.1516261    0.0266730    0.3755400    0.9264223
  -0.0465715   -0.0032787    0.1506399   -0.0806540    0.5102699    0.8562240
  -0.0457478   -0.0239100    0.1359703    0.0658139   -0.8646277   -0.4980839
  -0.0422215   -0.0264268    0.1409548   -0.1897760   -0.9669748   -0.1701319
  -0.0489787   -0.0218158    0.1319097    0.2309086   -0.6330809   -0.7388436
  -0.0458802   -0.0022512    0.1504194    0.0569280    0.3134694    0.9478904
  -0.0454615   -0.0015083    0.1500222   -0.2813376    0.6884917    0.6684522
  -0.0445542   -0.0008484    0.1493532    0.1409796    0.4155586    0.8985743
  -0.0433332    0.0008943    0.1489536   -0.1797002    0.5056845    0.8437956
  -0.0420512    0.0017195    0.1486035   -0.4843979    0.3952934    0.7804497
  -0.0426674    0.0033624    0.1409823   -0.4020175    0.8903381    0.2137286
  -0.0421491    0.0026336    0.1491208   -0.4403975    0.2309245    0.8675966
  -0.0404553    0.0033423    0.1463819   -0.4753571    0.8757263    0.0844931
  -0.0443420    0.0030664    0.1383875    0.0199987    0.9978257    0.0628007
  -0.0479785    0.0039686    0.1343932    0.6453575    0.7475603    0.1570586
  -0.0479776    0.0182660    0.1464213    0.6541953   -0.7380814   -0.1651190
  -0.0508330    0.0213348    0.1388969    0.8532271   -0.0574300   -0.5183679
  -0.0526994    0.0168512    0.1483634    0.1885715   -0.9466316    0.2613990
  -0.0525786    0.0194651    0.1361381    0.8342804    0.1477278   -0.5311805
  -0.0517831    0.0101141    0.1348376    0.9031537    0.3904426   -0.1785158
  -0.0646643    0.0097757    0.1098244    0.6100318    0.7911286   -0.0444614
  -0.0611379    0.0068072    0.1144736    0.5857852    0.8038997   -0.1029609
  -0.0660447    0.0112350    0.0985076    0.1117717    0.9562081    0.2705054
  -0.0603126    0.0079357    0.1076703    0.1444978    0.9490465    0.2800557
  -0.0539315    0.0139179    0.0977985   -0.2592841    0.7877221    0.5588074
  -0.0454096    0.0166944    0.0994960   -0.0958984    0.7758159    0.6236291
  -0.0443776    0.0168791    0.0987165    0.9548297    0.2690426   -0.1261599
  -0.0461646    0.0152777    0.0980017    0.4387442   -0.6509297   -0.6195112
  -0.0537490    0.0161084    0.1334682    0.8359967    0.2775376   -0.4733734
  -0.0527945    0.0076551    0.1287919    0.7255782    0.5196457   -0.4511149
  -0.0465173    0.0227919    0.1437057    0.6820271   -0.3382558   -0.6483996
  -0.0550224    0.0237354    0.1589333   -0.9473926   -0.0943026    0.3058663
  -0.0541407    0.0258628    0.1587554   -0.6198165    0.7284263    0.2919290
  -0.0406646    0.0305343    0.1473900    0.1201195    0.9617566   -0.2461615
  -0.0392096    0.0289337    0.1467270    0.4358251    0.0564970   -0.8982564
  -0.0392558    0.0245464    0.1481827    0.4588546   -0.5660291   -0.6848821
  -0.0507954    0.0175764    0.1568524   -0.2526162   -0.9373997    0.2397224
  -0.0564761    0.0048941    0.1192374    0.5317381    0.8179953   -0.2194045
  -0.0532753    0.0042676    0.1237786    0.4904549    0.8318562   -0.2597484
  -0.0505973    0.0033860    0.1257147    0.4364434    0.8560086   -0.2770675
  -0.0534968    0.0070889    0.1072169    0.1800393   -0.8303418   -0.5273693
  -0.0571815    0.0018715    0.1146754    0.2567406   -0.7907398   -0.5557111
  -0.0574087   -0.0023937    0.1196481    0.3870046   -0.5939840   -0.7052733
  -0.0552307   -0.0067981    0.1233685    0.3579129   -0.4137230   -0.8370971
  -0.0531881   -0.0109069    0.1257876    0.2935660   -0.3365145   -0.8947497
  -0.0494779   -0.0157768    0.1286712    0.2945569   -0.3657683   -0.8828645
  -0.0406676   -0.0254912    0.1482299    0.1948291   -0.6681308    0.7180827
  -0.0372746   -0.0266885    0.1457837    0.6028151   -0.4657129    0.6478622
  -0.0390347   -0.0272170    0.1440635    0.0334962   -0.9986556    0.0395597
  -0.0342545   -0.0257352    0.1429498    0.6623586   -0.5780146    0.4766342
  -0.0294610   -0.0214133    0.1390723    0.8693848   -0.4456118    0.2135422
  -0.0324330   -0.0244150    0.1416220    0.7618279   -0.6094304    0.2195743
  -0.0281691   -0.0180970    0.1388367    0.8581011   -0.2153806    0.4661263
  -0.0435953   -0.0225257    0.1347612    0.2000109   -0.6744059   -0.7107548
  -0.0391333   -0.0259920    0.1391496    0.1095727   -0.8723593   -0.4764274
  -0.0469062   -0.0191714    0.1309121    0.1990808   -0.4924297   -0.8472779
  -0.0263000   -0.0128259    0.1388457    0.9286807   -0.0695681    0.3642972
  -0.0263042   -0.0104234    0.1388622    0.9328677   -0.0815886    0.3508577
  -0.0261713   -0.0082269    0.1390075    0.7369767   -0.3993334    0.5453423
  -0.0418565    0.0039151    0.1406395   -0.4394138    0.8940004    0.0876285
  -0.0406258    0.0033355    0.1485475    0.1365260    0.6413404    0.7550120
  -0.0244787   -0.0059434    0.1387933    0.6760754   -0.4635113    0.5727822
  -0.0404117    0.0048422    0.1394531   -0.4458950    0.8904608    0.0908693
  -0.0396723    0.0034143    0.1481342    0.1017454    0.4804757    0.8710861
  -0.0384024    0.0044770    0.1460530   -0.2425659    0.9356383    0.2564036
  -0.0426042    0.0032549    0.1372484   -0.2622381    0.9649397   -0.0110745
  -0.0457788    0.0028519    0.1325632    0.2550278    0.9611654    0.1054601
  -0.0426218    0.0204005    0.1527770    0.4303878   -0.8794871   -0.2031471
  -0.0476148    0.0187024    0.1545295    0.3460528   -0.9362056    0.0613726
  -0.0506979    0.0061533    0.1315143    0.7075073    0.6687556   -0.2284719
  -0.0570745    0.0057171    0.1122702    0.1095297    0.9290847    0.3532774
  -0.0536325    0.0040108    0.1171213    0.0892315    0.9683993    0.2328959
  -0.0505192    0.0104036    0.1055539   -0.1792263    0.8740472    0.4515743
  -0.0504620    0.0083790    0.1103874   -0.1029335    0.8818603    0.4601381
  -0.0429933    0.0128442    0.1054471    0.0695294    0.7789755    0.6231877
  -0.0422437    0.0131884    0.1048301    0.9589672    0.2255075    0.1718380
  -0.0444504    0.0108542    0.1045153    0.4436876   -0.7152013   -0.5400264
  -0.0484113    0.0033268    0.1291329    0.2950778    0.9207941   -0.2550831
  -0.0532210    0.0220759    0.1640540   -0.7024687   -0.4258655    0.5702423
  -0.0526431    0.0255346    0.1636301   -0.5837411    0.7327345    0.3497806
  -0.0361216    0.0304284    0.1501758    0.0299995    0.9736435   -0.2260936
  -0.0343486    0.0287044    0.1482065    0.2229712    0.1658500   -0.9606132
  -0.0352295    0.0247844    0.1501456    0.2260074   -0.6640309   -0.7127297
  -0.0391551    0.0210905    0.1545114    0.2127444   -0.9539248   -0.2115830
  -0.0485829    0.0188899    0.1601535    0.1448253   -0.9505174    0.2748496
  -0.0499800    0.0029633    0.1216593    0.0846877    0.9894091    0.1178881
  -0.0473093    0.0025285    0.1239350    0.0046383    0.9963535    0.0851955
  -0.0446295    0.0023970    0.1270932   -0.1761708    0.9789476   -0.1030800
  -0.0512456    0.0047171    0.1114488    0.1745080   -0.8470960   -0.5019715
  -0.0544715    0.0005730    0.1182403    0.2098884   -0.7730140   -0.5986620
  -0.0532774   -0.0036790    0.1224922    0.2351799   -0.5732968   -0.7848702
  -0.0512033   -0.0069993    0.1249850    0.2240114   -0.4286030   -0.8752819
  -0.0465667   -0.0113445    0.1277544    0.1420380   -0.3609702   -0.9216972
  -0.0354216   -0.0259397    0.1415283    0.2741227   -0.9265163   -0.2577291
  -0.0329939   -0.0247122    0.1401703    0.4488930   -0.8058381   -0.3861607
  -0.0286782   -0.0180509    0.1371235    0.5987184   -0.4049085   -0.6910755
  -0.0300796   -0.0211773    0.1385680    0.4486778   -0.6049267   -0.6578388
  -0.0269693   -0.0135417    0.1368267    0.7735078   -0.1900166   -0.6046316
  -0.0413251   -0.0196683    0.1331198    0.2521909   -0.5431573   -0.8008620
  -0.0371075   -0.0240095    0.1375224    0.2278503   -0.7125097   -0.6636371
  -0.0451196   -0.0162373    0.1295273    0.1978575   -0.4146975   -0.8881883
  -0.0270893   -0.0106731    0.1369612    0.8347322   -0.0303918   -0.5498167
  -0.0269099   -0.0089805    0.1368054    0.7594747   -0.3139173   -0.5697843
  -0.0251086   -0.0063187    0.1365064    0.7621290   -0.5505762   -0.3406249
  -0.0222198   -0.0024988    0.1369429    0.8735211   -0.4451913   -0.1968899
  -0.0224599   -0.0024435    0.1396304    0.6664032   -0.3598839    0.6529857
  -0.0404480    0.0046373    0.1360476   -0.5109306    0.8591427    0.0287018
  -0.0357092    0.0075857    0.1385514   -0.2696356    0.9329278    0.2386258
  -0.0365972    0.0047363    0.1457385   -0.0623851    0.9294031    0.3637554
  -0.0367308    0.0040145    0.1474129    0.2516392    0.4740072    0.8437979
  -0.0421769    0.0030680    0.1310498   -0.2425407    0.9678691    0.0663582
  -0.0448069    0.0200495    0.1572520    0.2822650   -0.9536186    0.1045847
  -0.0463621    0.0064776    0.1145887   -0.0534792    0.9126115    0.4053150
  -0.0439030    0.0046220    0.1190595   -0.1364333    0.9310323    0.3384741
  -0.0439519    0.0093030    0.1100333    0.4914545    0.7083268    0.5067007
  -0.0440022    0.0062852    0.1144933    0.4315964    0.8734300    0.2254876
  -0.0434359    0.0098422    0.1084199    0.9821524   -0.1653752    0.0895971
  -0.0449219    0.0076784    0.1091802    0.4833535   -0.7610699   -0.4325991
  -0.0385188    0.0054526    0.1294936   -0.3638490    0.9272019   -0.0889413
  -0.0489519    0.0216836    0.1666628   -0.2755015   -0.5412189    0.7944690
  -0.0489809    0.0260033    0.1675050   -0.4311306    0.6412091    0.6348049
  -0.0282720    0.0308360    0.1510657   -0.0120633    0.9432593   -0.3318378
  -0.0278418    0.0275352    0.1487181    0.0671445    0.1095767   -0.9917079
  -0.0288505    0.0246754    0.1505773    0.0277939   -0.7398188   -0.6722318
  -0.0356078    0.0208287    0.1569330    0.0163706   -0.9823049   -0.1865719
  -0.0394778    0.0215269    0.1598384    0.0634913   -0.9843383    0.1644597
  -0.0437121    0.0215452    0.1639816    0.2277522   -0.9034069    0.3632972
  -0.0419463    0.0043069    0.1211543   -0.2351458    0.9524498    0.1937677
  -0.0402029    0.0045360    0.1251145   -0.3620840    0.9318562    0.0232204
  -0.0336069    0.0079672    0.1275952   -0.3283862    0.9445380    0.0032533
  -0.0490816    0.0032850    0.1149947    0.1507578   -0.8312152   -0.5351200
  -0.0501281   -0.0010850    0.1206506    0.0910175   -0.7163622   -0.6917666
  -0.0493971   -0.0046385    0.1238073    0.0959091   -0.5921159   -0.8001251
  -0.0447340   -0.0082001    0.1266625    0.1159198   -0.4393331   -0.8908137
  -0.0342904   -0.0210187    0.1359003    0.3399916   -0.5115880   -0.7891029
  -0.0313477   -0.0132593    0.1345396    0.4162039   -0.2928997   -0.8608043
  -0.0328294   -0.0178255    0.1352834    0.3835340   -0.3468861   -0.8559040
  -0.0306293   -0.0108590    0.1341999    0.5651894   -0.1820739   -0.8046180
  -0.0391983   -0.0168184    0.1324008    0.3514346   -0.3792829   -0.8559429
  -0.0422598   -0.0121463    0.1288722    0.2697115   -0.4437782   -0.8545856
  -0.0276614   -0.0063494    0.1341131    0.5848408   -0.6572271   -0.4754091
  -0.0295304   -0.0083314    0.1348101    0.5566741   -0.5109894   -0.6549838
  -0.0229586   -0.0004542    0.1344591    0.9040496   -0.4260782    0.0339357
  -0.0213321   -0.0000594    0.1376498    0.9917089   -0.1240077   -0.0336974
  -0.0246611   -0.0033189    0.1335411    0.7421283   -0.6191497   -0.2567084
  -0.0220294    0.0005556    0.1397923    0.7320313   -0.0056401    0.6812477
